ply
format ascii 1.0
comment PCL generated
element vertex 1080
property float x
property float y
property float z
property uchar red
property uchar green
property uchar blue
element camera 0
property float view_px
property float view_py
property float view_pz
property float x_axisx
property float x_axisy
property float x_axisz
property float y_axisx
property float y_axisy
property float y_axisz
property float z_axisx
property float z_axisy
property float z_axisz
property float focal
property float scalex
property float scaley
property float centerx
property float centery
property int viewportx
property int viewporty
property float k1
property float k2
end_header
-6.1300807 -10.760322 -2.3541577 255 11 117
-5.5662918 -10.746267 -2.3451834 255 11 117
-5.5344372 -10.72421 -2.326823 255 11 117
-5.4939003 -10.722087 -2.3269155 255 11 117
-3.5419953 -10.70307 -2.2818382 255 11 117
-5.5180054 -10.699716 -2.3335743 255 11 117
-5.4939075 -10.702842 -2.3285658 255 11 117
-3.4595728 -10.644624 -2.2925055 255 11 117
-3.4041665 -10.555495 -2.2566528 255 11 117
-3.1975653 -10.534492 -2.2881169 255 11 117
-3.4293919 -10.509746 -2.259218 255 11 117
-3.1780167 -10.464821 -2.2500834 255 11 117
-3.1513608 -10.382126 -2.2572393 255 11 117
-5.0449529 -8.7316446 -2.063271 255 11 117
-5.0372233 -8.7248173 -2.0495071 255 11 117
-5.0538635 -8.6864138 -2.0469594 255 11 117
-5.0297666 -8.6995516 -2.0525062 255 11 117
-5.0731897 -8.6477528 -2.042012 255 11 117
-5.0866318 -8.5989914 -2.0355313 255 11 117
-5.0795069 -8.5515871 -2.0278502 255 11 117
-5.0690904 -8.4960499 -2.0335531 255 11 117
-5.0612545 -8.4453907 -2.0161328 255 11 117
-5.0587258 -8.3939123 -2.0025935 255 11 117
-5.0559268 -8.3526592 -1.9861221 255 11 117
-5.0419803 -8.3501434 -2.0137005 255 11 117
-5.0219979 -8.2856512 -1.9925332 255 11 117
-5.0169463 -8.2627182 -1.981287 255 11 117
-5.0036993 -8.206234 -1.9658418 255 11 117
-4.9990554 -8.1845865 -1.9843545 255 11 117
-5.0139928 -8.1528521 -1.9724741 255 11 117
-5.0004768 -8.1740236 -1.9625487 255 11 117
-2.3252928 -7.7895293 -1.8701414 255 11 117
-2.2775686 -7.791944 -1.8781698 255 11 117
-2.3316381 -7.7658877 -1.8807173 255 11 117
-2.2930918 -7.7693601 -1.8789077 255 11 117
-2.3324351 -7.7127166 -1.8989944 255 11 117
-4.8300719 -7.5981979 -1.9001119 255 11 117
-4.82057 -7.5531373 -1.8875699 255 11 117
-4.8104372 -7.5510855 -1.8913763 255 11 117
-4.8016868 -7.4857535 -1.8754202 255 11 117
-4.7918973 -7.4490829 -1.8790932 255 11 117
-4.783339 -7.3950548 -1.8650181 255 11 117
-4.7793665 -7.3499794 -1.8631415 255 11 117
-4.8763232 -7.3038707 -1.8539159 255 11 117
-4.8435602 -7.3146081 -1.8585193 255 11 117
-4.7963576 -7.3090358 -1.8564374 255 11 117
-5.1459298 -7.250948 -1.8559535 255 11 117
-5.1156783 -7.2340198 -1.8701315 255 11 117
-4.8853488 -7.2748222 -1.8674012 255 11 117
-5.1470408 -7.2014427 -1.8495592 255 11 117
-4.8408494 -7.1993442 -1.8600211 255 11 117
-5.1290622 -7.1627941 -1.8536767 255 11 117
-4.8258514 -7.1721334 -1.831362 255 11 117
-4.8172092 -7.1498618 -1.830374 255 11 117
-5.1198215 -7.1298199 -1.8589741 255 11 117
-5.0944676 -7.0991025 -1.8497258 255 11 117
-5.0071192 -7.0905237 -1.8368294 255 11 117
-4.7966352 -7.1106195 -1.8395979 255 11 117
-5.0868287 -7.0819106 -1.8224348 255 11 117
-4.9696679 -7.0515647 -1.8166721 255 11 117
-5.0423059 -7.0063086 -1.8139825 255 11 117
-4.9850793 -7.0254121 -1.8437777 255 11 117
-4.9507122 -7.019331 -1.817775 255 11 117
-4.7507715 -7.026319 -1.8250582 255 11 117
-5.1370912 -6.9594173 -1.8036895 255 11 117
-5.1177359 -6.9373913 -1.8131065 255 11 117
-5.0264978 -6.9809766 -1.7963667 255 11 117
-4.9422679 -6.978385 -1.8306968 255 11 117
-4.9045777 -6.9654093 -1.81353 255 11 117
-4.7018833 -6.9472799 -1.8144242 255 11 117
-5.0947838 -6.918458 -1.799674 255 11 117
-5.0467434 -6.8966479 -1.7908149 255 11 117
-5.0059576 -6.9116359 -1.7887785 255 11 117
-4.9246297 -6.9094586 -1.8134146 255 11 117
-4.8469095 -6.8877854 -1.8002436 255 11 117
-5.0380135 -6.8844271 -1.7987332 255 11 117
-4.8938437 -6.8506889 -1.7943003 255 11 117
-4.8298187 -6.8639293 -1.7789434 255 11 117
-4.8191795 -6.8591118 -1.7770597 255 11 117
-4.6533966 -6.8447495 -1.7908362 255 11 117
-4.7909551 -6.8165293 -1.7717704 255 11 117
-4.7510285 -6.7902341 -1.7655195 255 11 117
-4.6940536 -6.8001924 -1.789271 255 11 117
-4.6637564 -6.8265843 -1.7879758 255 11 117
-4.805398 -6.7649431 -1.7752179 255 11 117
-4.7371187 -6.7718911 -1.7825061 255 11 117
-4.7220907 -6.7739191 -1.7972353 255 11 117
-4.9636879 -6.727541 -1.773788 255 11 117
-4.9127254 -6.7059383 -1.7547468 255 11 117
-4.8475852 -6.6949625 -1.7757028 255 11 117
-4.8070292 -6.6963949 -1.7535497 255 11 117
-4.7344022 -6.6919279 -1.7563403 255 11 117
-4.7008719 -6.7022924 -1.7804692 255 11 117
1.2129812 -6.6227903 -1.6817588 255 11 117
1.2315713 -6.6073084 -1.6824583 255 11 117
-4.9055839 -6.680954 -1.750551 255 11 117
-4.7224002 -6.6446428 -1.777055 255 11 117
-4.669724 -6.6596732 -1.7760267 255 11 117
1.2129805 -6.5651441 -1.6827041 255 11 117
1.2342106 -6.5672312 -1.6782196 255 11 117
-4.7890816 -6.5876088 -1.7625608 255 11 117
-4.7744603 -6.6050005 -1.7565651 255 11 117
-4.6918125 -6.6005821 -1.7722747 255 11 117
-4.6555281 -6.5922499 -1.7421182 255 11 117
-4.6212587 -6.5917778 -1.7749203 255 11 117
1.211627 -6.5238433 -1.6783998 255 11 117
1.2345096 -6.512249 -1.6713934 255 11 117
1.2877402 -6.4893923 -1.6844921 255 11 117
1.3674974 -6.488821 -1.6789463 255 11 117
-4.7827177 -6.5682473 -1.7621191 255 11 117
-4.6539121 -6.5762162 -1.7768066 255 11 117
-4.6099524 -6.5356092 -1.769798 255 11 117
1.2534037 -6.4665899 -1.6627898 255 11 117
1.2893137 -6.4636955 -1.6638374 255 11 117
1.3409891 -6.4526525 -1.6649575 255 11 117
1.3714244 -6.4582429 -1.6725824 255 11 117
-4.8064022 -6.5201654 -1.7669704 255 11 117
-4.7519836 -6.5256639 -1.7538033 255 11 117
-4.7195292 -6.4990768 -1.7537735 255 11 117
-4.5901523 -6.5099206 -1.7437643 255 11 117
-4.5728993 -6.4943671 -1.7489109 255 11 117
1.250551 -6.4118094 -1.6289772 255 11 117
1.2896926 -6.4063926 -1.627298 255 11 117
1.3498446 -6.42276 -1.6536808 255 11 117
1.4777625 -6.3991346 -1.668303 255 11 117
-4.7475643 -6.4564996 -1.7473841 255 11 117
-4.5918269 -6.447854 -1.7159872 255 11 117
-4.5707603 -6.4761167 -1.7416353 255 11 117
1.3386199 -6.3818464 -1.6696188 255 11 117
1.473871 -6.3557343 -1.6627424 255 11 117
-4.7085171 -6.4017653 -1.7352028 255 11 117
-4.5764031 -6.4271584 -1.7116797 255 11 117
1.4635848 -6.2914038 -1.6421819 255 11 117
1.4699795 -6.3185291 -1.6531606 255 11 117
1.6170057 -6.285902 -1.6516787 255 11 117
-4.6540179 -6.3525038 -1.7289739 255 11 117
0.97907883 -6.2731366 -1.6255836 255 11 117
1.0306487 -6.2501855 -1.6301181 255 11 117
1.4521494 -6.2621126 -1.63289 255 11 117
-4.6479816 -6.3344445 -1.7217896 255 11 117
-4.6229434 -6.3218508 -1.7180493 255 11 117
0.95284891 -6.2308612 -1.6307091 255 11 117
1.0012635 -6.2243576 -1.620482 255 11 117
1.0239021 -6.2321444 -1.6315331 255 11 117
1.4495898 -6.2132154 -1.6209838 255 11 117
-4.6479096 -6.285502 -1.6953977 255 11 117
0.94200391 -6.1702514 -1.6274071 255 11 117
0.98404497 -6.1797447 -1.6206455 255 11 117
1.4340914 -6.1537962 -1.6086257 255 11 117
1.578409 -6.1371632 -1.6276324 255 11 117
0.90992278 -6.1041903 -1.603333 255 11 117
0.93391472 -6.1285257 -1.616379 255 11 117
0.9815762 -6.1209617 -1.6213622 255 11 117
1.3980653 -6.0911689 -1.6132822 255 11 117
1.4290066 -6.1187997 -1.5979061 255 11 117
1.5783578 -6.1337194 -1.6151433 255 11 117
0.93928611 -6.067976 -1.5918808 255 11 117
1.4099407 -6.0428185 -1.5912039 255 11 117
1.4200163 -6.0676289 -1.5880706 255 11 117
0.9025389 -6.0343494 -1.5932891 255 11 117
0.92600536 -6.0443354 -1.5866024 255 11 117
-4.6546245 -6.0536885 -1.6714059 255 11 117
-4.6267257 -6.0418296 -1.6656735 255 11 117
0.88415641 -5.9532967 -1.5737667 255 11 117
1.3710523 -5.9508915 -1.5776105 255 11 117
1.5373437 -5.9548602 -1.5905185 255 11 117
1.6009176 -5.9656405 -1.6102334 255 11 117
-4.6442409 -6.0265994 -1.6614703 255 11 117
-4.6110611 -6.0084147 -1.6674128 255 11 117
-4.5895648 -5.9892879 -1.6715329 255 11 117
0.90172452 -5.922935 -1.5773439 255 11 117
1.2844385 -5.8964267 -1.5928892 255 11 117
1.3881025 -5.9314508 -1.5598384 255 11 117
1.5501125 -5.912837 -1.5974717 255 11 117
-4.5990882 -5.9651532 -1.6593814 255 11 117
-4.5768504 -5.9654121 -1.6625667 255 11 117
1.2743508 -5.8796506 -1.5900154 255 11 117
1.5319967 -5.8724236 -1.5857936 255 11 117
1.568813 -5.8524642 -1.5815182 255 11 117
-4.5631151 -5.9219961 -1.6536131 255 11 117
-4.5223689 -5.9057961 -1.6629307 255 11 117
1.2436341 -5.8112359 -1.5874498 255 11 117
1.2596055 -5.8372989 -1.5847651 255 11 117
1.5452728 -5.8222027 -1.5882837 255 11 117
1.5695362 -5.8014979 -1.5739598 255 11 117
-4.549334 -5.8842697 -1.6364738 255 11 117
-4.5125713 -5.8674889 -1.6573409 255 11 117
-4.4770403 -5.8528209 -1.6470764 255 11 117
1.19849 -5.7607374 -1.5833166 255 11 117
1.2316802 -5.7624302 -1.574845 255 11 117
1.2587216 -5.7819276 -1.560336 255 11 117
1.4912139 -5.7805629 -1.5507748 255 11 117
1.5463908 -5.7565928 -1.5703347 255 11 117
1.5768797 -5.7522717 -1.5651209 255 11 117
1.6117195 -5.7431679 -1.5638208 255 11 117
-4.5019159 -5.8293304 -1.6355722 255 11 117
-4.4809527 -5.808887 -1.6385264 255 11 117
-4.4367695 -5.8087664 -1.6234231 255 11 117
-4.3507023 -5.7912221 -1.6301055 255 11 117
-2.0837502 -5.7542248 -1.5887024 255 11 117
1.1361288 -5.7125711 -1.5713826 255 11 117
1.2224283 -5.7305102 -1.5664722 255 11 117
1.2558225 -5.7410522 -1.5512841 255 11 117
1.500178 -5.7083941 -1.5521538 255 11 117
1.5453972 -5.7181649 -1.5747361 255 11 117
1.5840126 -5.7249098 -1.5719781 255 11 117
1.6103222 -5.7189755 -1.5681888 255 11 117
-4.4683824 -5.7734694 -1.6264594 255 11 117
-4.4180641 -5.7505851 -1.6292548 255 11 117
-2.0960879 -5.7355509 -1.5832907 255 11 117
-2.0852456 -5.7155423 -1.5904049 255 11 117
1.1477448 -5.6745954 -1.5722988 255 11 117
1.1767354 -5.69454 -1.5695782 255 11 117
1.224063 -5.6799521 -1.5430505 255 11 117
1.4900059 -5.6669998 -1.5534797 255 11 117
1.5277833 -5.6703973 -1.5642176 255 11 117
1.5982887 -5.6604185 -1.5588191 255 11 117
1.6096215 -5.6563821 -1.5594096 255 11 117
-4.4392166 -5.7120175 -1.6169356 255 11 117
-4.3871427 -5.7208581 -1.6191356 255 11 117
-2.3500502 -5.667253 -1.5984166 255 11 117
-2.3374088 -5.6666422 -1.6010528 255 11 117
-2.1468799 -5.6756854 -1.5748851 255 11 117
-2.1112707 -5.6562057 -1.590205 255 11 117
-2.0857928 -5.6734438 -1.5940604 255 11 117
-2.0103765 -5.6622524 -1.5957459 255 11 117
-1.9918697 -5.6633034 -1.5896623 255 11 117
-1.9025798 -5.6597786 -1.5913476 255 11 117
-1.8715931 -5.6626678 -1.5967035 255 11 117
-1.8270055 -5.6724195 -1.6094992 255 11 117
1.132264 -5.618124 -1.5596136 255 11 117
1.1794801 -5.6238694 -1.5437325 255 11 117
1.2222162 -5.6444268 -1.5329993 255 11 117
1.4844252 -5.6099787 -1.5458083 255 11 117
1.5092754 -5.6255431 -1.5585303 255 11 117
1.5926642 -5.6159005 -1.5521123 255 11 117
-4.5063162 -5.643302 -1.6048028 255 11 117
-4.4124351 -5.6720304 -1.6294515 255 11 117
-4.3799915 -5.661067 -1.6042681 255 11 117
-4.3243623 -5.6625857 -1.6502278 255 11 117
-2.3487825 -5.6314635 -1.5963705 255 11 117
-2.3388333 -5.6275315 -1.5955243 255 11 117
-2.208293 -5.6140947 -1.5904901 255 11 117
-2.1861317 -5.6180878 -1.5901713 255 11 117
-2.1144748 -5.637382 -1.5930481 255 11 117
-2.0912349 -5.6415672 -1.5954906 255 11 117
-2.017422 -5.6412463 -1.5931823 255 11 117
-1.9874549 -5.6402345 -1.5818741 255 11 117
-1.8631535 -5.6388664 -1.5949287 255 11 117
-1.8291465 -5.6194873 -1.584235 255 11 117
-1.7904938 -5.622138 -1.5947658 255 11 117
1.1336247 -5.5790849 -1.5451152 255 11 117
1.1576742 -5.5704107 -1.5316188 255 11 117
1.2203459 -5.5996203 -1.5181291 255 11 117
1.4483199 -5.5614095 -1.5161048 255 11 117
1.4674958 -5.5664444 -1.527073 255 11 117
1.5816687 -5.5624905 -1.541821 255 11 117
1.6504996 -5.5481215 -1.5522282 255 11 117
1.6626772 -5.5580606 -1.548265 255 11 117
-4.5075555 -5.6153235 -1.6009417 255 11 117
-4.4836049 -5.6172948 -1.60035 255 11 117
-4.4026685 -5.6222029 -1.6442084 255 11 117
-4.2820215 -5.6160226 -1.6360233 255 11 117
-4.2311664 -5.6200995 -1.6285794 255 11 117
-2.4051487 -5.5632467 -1.5790832 255 11 117
-2.3715069 -5.5639749 -1.5902299 255 11 117
-2.3434746 -5.5732212 -1.5864662 255 11 117
-2.2127879 -5.5928936 -1.5915604 255 11 117
-2.1850338 -5.5953188 -1.5944898 255 11 117
-2.1333492 -5.5934267 -1.5798782 255 11 117
-1.8149347 -5.573885 -1.5710225 255 11 117
-1.7783378 -5.5734315 -1.587224 255 11 117
1.1691242 -5.5203567 -1.5137129 255 11 117
1.2320901 -5.5122819 -1.509376 255 11 117
1.2651688 -5.5050178 -1.5154452 255 11 117
1.4394288 -5.5120287 -1.5231797 255 11 117
1.4618491 -5.5137501 -1.5351002 255 11 117
1.570316 -5.5188107 -1.5287325 255 11 117
1.6408652 -5.5072041 -1.5332353 255 11 117
1.6617088 -5.5272307 -1.5256127 255 11 117
-4.417439 -5.549294 -1.6326208 255 11 117
-4.2518907 -5.5710235 -1.6213825 255 11 117
-4.2088261 -5.5795007 -1.6309649 255 11 117
-4.1752267 -5.5341702 -1.6150975 255 11 117
-2.3998237 -5.5483971 -1.576833 255 11 117
-2.3692734 -5.5458145 -1.5847125 255 11 117
-2.3463407 -5.5499234 -1.5897353 255 11 117
-1.8073821 -5.5301795 -1.5686933 255 11 117
-1.7737834 -5.5170922 -1.5726867 255 11 117
1.0957353 -5.4600368 -1.5239352 255 11 117
1.1290271 -5.4632239 -1.5227827 255 11 117
1.1792438 -5.4637542 -1.5219338 255 11 117
1.2273359 -5.4690151 -1.524292 255 11 117
1.2724268 -5.4737349 -1.5239565 255 11 117
1.3942717 -5.4634752 -1.5182545 255 11 117
1.4220676 -5.4718471 -1.5223796 255 11 117
1.4548234 -5.4890628 -1.5366998 255 11 117
1.5613195 -5.4712191 -1.5228609 255 11 117
1.6329043 -5.4711432 -1.5251892 255 11 117
-4.9120512 -5.5070834 -1.6370897 255 11 117
-4.89432 -5.5053835 -1.6355536 255 11 117
-4.8280354 -5.4929862 -1.632722 255 11 117
-4.7864709 -5.4966588 -1.634701 255 11 117
-4.5448966 -5.489624 -1.6305845 255 11 117
-4.4552603 -5.4975715 -1.624778 255 11 117
-4.3200474 -5.5046735 -1.620398 255 11 117
-4.2636437 -5.5045838 -1.6014169 255 11 117
-4.2055206 -5.5177226 -1.6261721 255 11 117
-4.1698074 -5.5092545 -1.6183083 255 11 117
-4.1465769 -5.4930286 -1.5921192 255 11 117
-2.3782759 -5.5008645 -1.5671457 255 11 117
-1.7690494 -5.4895353 -1.5516202 255 11 117
-1.7435591 -5.4723654 -1.5800807 255 11 117
0.19682893 -5.4236021 -1.5557978 255 11 117
0.24074176 -5.4303994 -1.5531387 255 11 117
0.28821152 -5.437396 -1.5558684 255 11 117
0.30374467 -5.4322357 -1.5553229 255 11 117
0.39010119 -5.4252825 -1.5543063 255 11 117
0.42421341 -5.4216108 -1.5521309 255 11 117
1.0934861 -5.4348822 -1.5325761 255 11 117
1.1232544 -5.4417329 -1.5359261 255 11 117
1.1676254 -5.4444923 -1.5390313 255 11 117
1.2851282 -5.4443851 -1.5258049 255 11 117
1.3766925 -5.420558 -1.5128136 255 11 117
1.4050878 -5.4399743 -1.5360233 255 11 117
1.5459814 -5.4163408 -1.5088906 255 11 117
1.5565115 -5.4262991 -1.5005897 255 11 117
1.6133796 -5.4204516 -1.514816 255 11 117
-4.9204059 -5.4728293 -1.6261704 255 11 117
-4.8663611 -5.4539113 -1.6196558 255 11 117
-4.8249536 -5.490479 -1.6302345 255 11 117
-4.7732649 -5.4753723 -1.6274689 255 11 117
-4.731904 -5.4582124 -1.6211531 255 11 117
-4.5331521 -5.4558468 -1.6228657 255 11 117
-4.4255023 -5.456418 -1.6157091 255 11 117
-4.3890543 -5.4471912 -1.6036921 255 11 117
-4.3159842 -5.4474864 -1.6150374 255 11 117
-4.2861528 -5.4405322 -1.6173767 255 11 117
-4.1518497 -5.4490533 -1.6060243 255 11 117
-4.1199131 -5.4518871 -1.6016817 255 11 117
-1.7702971 -5.4436784 -1.5405635 255 11 117
-1.7361128 -5.4084535 -1.539315 255 11 117
0.19249225 -5.3950753 -1.5450578 255 11 117
0.22179767 -5.3918247 -1.5427544 255 11 117
0.27919796 -5.3934326 -1.5426068 255 11 117
0.33062887 -5.3914342 -1.5434374 255 11 117
0.36313799 -5.3874116 -1.5452604 255 11 117
0.41486561 -5.383954 -1.5410171 255 11 117
0.46474928 -5.3678164 -1.5399222 255 11 117
0.56141031 -5.3700514 -1.5386283 255 11 117
0.64538419 -5.3653235 -1.5405169 255 11 117
0.68330014 -5.360662 -1.5409703 255 11 117
1.0730551 -5.3821006 -1.5102237 255 11 117
1.3590019 -5.3746638 -1.52846 255 11 117
1.5379248 -5.3603163 -1.5084763 255 11 117
1.5915951 -5.3726978 -1.5029355 255 11 117
1.6081679 -5.3788123 -1.498778 255 11 117
-4.9544358 -5.4328523 -1.6210916 255 11 117
-4.9093804 -5.4136953 -1.6066806 255 11 117
-4.8704748 -5.4085903 -1.6041396 255 11 117
-4.8178339 -5.4057732 -1.6030935 255 11 117
-4.7692242 -5.4096355 -1.6032062 255 11 117
-4.7142258 -5.4104619 -1.6032698 255 11 117
-4.6789188 -5.4043012 -1.5953114 255 11 117
-4.5594678 -5.4192696 -1.6176586 255 11 117
-4.537519 -5.4263 -1.6160645 255 11 117
-4.4691491 -5.407897 -1.6041188 255 11 117
-4.3923998 -5.4045682 -1.6046667 255 11 117
-4.3097339 -5.4274435 -1.6095536 255 11 117
-4.278604 -5.4044385 -1.6024394 255 11 117
-4.2485299 -5.4100542 -1.5794563 255 11 117
-4.1686711 -5.426918 -1.5740197 255 11 117
-4.1054254 -5.4053411 -1.6051989 255 11 117
-4.0865383 -5.3906007 -1.5955696 255 11 117
-1.7145472 -5.3651524 -1.5444303 255 11 117
0.18454956 -5.351181 -1.5350094 255 11 117
0.2284779 -5.3419309 -1.5267887 255 11 117
0.27856988 -5.3432646 -1.5265501 255 11 117
0.31469512 -5.3284049 -1.5205967 255 11 117
0.37643024 -5.3325214 -1.5272666 255 11 117
0.42136639 -5.3300648 -1.5224578 255 11 117
0.47765121 -5.3203192 -1.518137 255 11 117
0.52240503 -5.3201818 -1.5266677 255 11 117
0.5721485 -5.3208814 -1.5097783 255 11 117
0.62689662 -5.3297157 -1.5090177 255 11 117
0.67492837 -5.3320088 -1.5120728 255 11 117
0.70108962 -5.3257461 -1.5159183 255 11 117
1.0615742 -5.3330407 -1.5048821 255 11 117
1.3416978 -5.3053641 -1.5200984 255 11 117
1.3508562 -5.3348722 -1.4989998 255 11 117
1.5285856 -5.3157482 -1.4997892 255 11 117
1.5772959 -5.3129616 -1.499402 255 11 117
-4.9241929 -5.3947706 -1.6113634 255 11 117
-4.8602557 -5.3661485 -1.5875823 255 11 117
-4.8197298 -5.3609028 -1.5791574 255 11 117
-4.7771859 -5.3687797 -1.5781565 255 11 117
-4.7238498 -5.383667 -1.579916 255 11 117
-4.6857629 -5.3904347 -1.5798814 255 11 117
-4.6312013 -5.3694482 -1.5800864 255 11 117
-4.528522 -5.361783 -1.6020188 255 11 117
-4.471621 -5.3666534 -1.5899807 255 11 117
-4.4243522 -5.3712769 -1.5922552 255 11 117
-4.3677096 -5.3597536 -1.5940055 255 11 117
-4.2672644 -5.3790588 -1.5930017 255 11 117
-4.2238431 -5.3522639 -1.5903027 255 11 117
-4.069459 -5.3599195 -1.5824996 255 11 117
-1.686814 -5.3247623 -1.528846 255 11 117
0.1891716 -5.2938342 -1.512364 255 11 117
0.2231589 -5.2860537 -1.500698 255 11 117
0.26987019 -5.2891016 -1.5010633 255 11 117
0.32198775 -5.2918477 -1.4997916 255 11 117
0.37426868 -5.2903271 -1.5003135 255 11 117
0.42175192 -5.2935653 -1.4988596 255 11 117
0.47316754 -5.3036618 -1.5029204 255 11 117
0.52353746 -5.3024645 -1.5035245 255 11 117
0.57542342 -5.3051715 -1.4989758 255 11 117
0.61033428 -5.3022971 -1.5041339 255 11 117
0.69472045 -5.2908511 -1.4971452 255 11 117
0.70341653 -5.2923369 -1.5076854 255 11 117
1.042021 -5.2647099 -1.5150877 255 11 117
1.0525459 -5.2822185 -1.5084534 255 11 117
1.3348484 -5.2814078 -1.4952695 255 11 117
1.3489883 -5.2907615 -1.4817326 255 11 117
1.5331776 -5.2674041 -1.4938591 255 11 117
1.5558168 -5.2699437 -1.4891686 255 11 117
-4.855186 -5.3303876 -1.567605 255 11 117
-4.8437448 -5.3456993 -1.5728891 255 11 117
-4.6037278 -5.3420792 -1.5798512 255 11 117
-4.5811014 -5.3185406 -1.5796325 255 11 117
-4.5026307 -5.3268428 -1.5859268 255 11 117
-4.4841666 -5.3054452 -1.58286 255 11 117
-4.429481 -5.311554 -1.575665 255 11 117
-4.3725119 -5.3123975 -1.5868185 255 11 117
-4.3335385 -5.302393 -1.5831941 255 11 117
-4.2924099 -5.2954659 -1.5521944 255 11 117
-4.2161369 -5.3177729 -1.5887911 255 11 117
-4.1865902 -5.2996554 -1.5833851 255 11 117
-1.6804986 -5.2683549 -1.5359516 255 11 117
0.18736994 -5.2503285 -1.4974816 255 11 117
0.22603226 -5.2551832 -1.4898 255 11 117
0.27308539 -5.2587605 -1.4882185 255 11 117
0.42586458 -5.2610722 -1.488395 255 11 117
0.69220513 -5.2177448 -1.4890544 255 11 117
0.69841284 -5.2402058 -1.5112936 255 11 117
1.0396136 -5.2267938 -1.4943874 255 11 117
1.3139843 -5.2091365 -1.4870884 255 11 117
1.5387141 -5.2434993 -1.4859281 255 11 117
-4.817894 -5.2753024 -1.5684962 255 11 117
-4.5547676 -5.2866659 -1.5863602 255 11 117
-4.5346875 -5.2691879 -1.5785532 255 11 117
-4.4637485 -5.2696471 -1.5861024 255 11 117
-4.4401965 -5.2523952 -1.5736428 255 11 117
-4.3777828 -5.2739153 -1.5576596 255 11 117
-4.3158455 -5.2660222 -1.5713143 255 11 117
-4.2954535 -5.2492299 -1.5705326 255 11 117
-4.1784263 -5.2827783 -1.592549 255 11 117
-1.6629649 -5.2197828 -1.5154998 255 11 117
-1.6441855 -5.2054739 -1.5268919 255 11 117
0.17041501 -5.185236 -1.5036391 255 11 117
0.68611622 -5.1953826 -1.4859062 255 11 117
1.0296724 -5.1856647 -1.4847797 255 11 117
1.2187457 -5.1680489 -1.4605014 255 11 117
-4.7908859 -5.2404809 -1.5610001 255 11 117
-4.5048656 -5.2372909 -1.5665841 255 11 117
-4.4802847 -5.212719 -1.5603344 255 11 117
-4.4219437 -5.2076907 -1.5693281 255 11 117
-4.2916512 -5.2366786 -1.5670445 255 11 117
-1.6589794 -5.1788068 -1.5095332 255 11 117
-1.6297282 -5.1691771 -1.5102859 255 11 117
0.16770987 -5.146091 -1.4955328 255 11 117
0.68237609 -5.1389837 -1.4652343 255 11 117
1.0235262 -5.139894 -1.4849942 255 11 117
1.2152976 -5.1327677 -1.462783 255 11 117
-4.7438769 -5.1812649 -1.5488408 255 11 117
-4.4587426 -5.188993 -1.5564399 255 11 117
-4.424294 -5.167213 -1.5572512 255 11 117
-4.3927789 -5.1638551 -1.5617431 255 11 117
-1.621612 -5.1107082 -1.51747 255 11 117
-1.5914762 -5.1147637 -1.5139998 255 11 117
-1.4070002 -5.0983152 -1.4891164 255 11 117
-1.3756877 -5.1000962 -1.497803 255 11 117
-1.3368531 -5.1062012 -1.4961826 255 11 117
-1.2660308 -5.1063461 -1.5212377 255 11 117
-1.2385159 -5.1083035 -1.5194393 255 11 117
0.16512196 -5.0981426 -1.4899871 255 11 117
0.53799802 -5.0801039 -1.5019062 255 11 117
1.0077006 -5.082222 -1.4676409 255 11 117
1.2787219 -5.0687971 -1.4687278 255 11 117
-4.7080712 -5.1267109 -1.5722699 255 11 117
-4.6904259 -5.1079354 -1.5505626 255 11 117
-4.4061532 -5.139708 -1.5489582 255 11 117
-4.3820086 -5.1247816 -1.5550078 255 11 117
-1.611204 -5.0912795 -1.5143064 255 11 117
-1.5837494 -5.0757093 -1.5062491 255 11 117
-1.5439752 -5.0650716 -1.4992294 255 11 117
-1.4720697 -5.0652986 -1.5065832 255 11 117
-1.4304738 -5.0812302 -1.5085664 255 11 117
-1.3874567 -5.0859108 -1.5141971 255 11 117
-1.3310107 -5.0752392 -1.5022955 255 11 117
-1.2829139 -5.0669069 -1.508357 255 11 117
-1.2410796 -5.0654855 -1.4929826 255 11 117
0.15957113 -5.0478044 -1.4811802 255 11 117
0.53869867 -5.0325971 -1.4917731 255 11 117
0.68135297 -5.0342383 -1.4559276 255 11 117
0.99861431 -5.0363998 -1.4590554 255 11 117
1.047834 -5.0058613 -1.4793441 255 11 117
1.1920189 -5.0196619 -1.4437084 255 11 117
1.1970924 -5.0219612 -1.4499228 255 11 117
1.2668977 -5.0242596 -1.4577874 255 11 117
-4.6829009 -5.0937109 -1.5717392 255 11 117
-4.6486521 -5.0504007 -1.5649035 255 11 117
-1.5625088 -5.0347443 -1.5046611 255 11 117
-1.5327445 -5.027133 -1.5033638 255 11 117
-1.4869084 -5.0168309 -1.5015736 255 11 117
-1.3630488 -5.0265002 -1.5234859 255 11 117
-1.3244312 -5.0167346 -1.5116838 255 11 117
-1.2848099 -5.0266709 -1.4934047 255 11 117
-1.2453885 -5.0345564 -1.4833224 255 11 117
0.15650734 -4.9953046 -1.4743021 255 11 117
0.53532869 -4.9877167 -1.4749548 255 11 117
0.98489588 -4.9845881 -1.4488071 255 11 117
1.0090989 -4.9843068 -1.4611375 255 11 117
1.0962577 -4.9627085 -1.4794769 255 11 117
1.1861986 -4.9833951 -1.4468474 255 11 117
1.2520442 -4.9645934 -1.4330826 255 11 117
-4.6361809 -5.0374703 -1.5427959 255 11 117
-1.5094898 -4.9952416 -1.499911 255 11 117
-1.4903305 -4.9903402 -1.4968767 255 11 117
0.15047376 -4.9458942 -1.4674431 255 11 117
0.52950794 -4.9582953 -1.4642792 255 11 117
0.55991155 -4.9289145 -1.4811065 255 11 117
0.97647542 -4.9183612 -1.4350879 255 11 117
1.0054392 -4.9088502 -1.4430594 255 11 117
1.1769537 -4.9265838 -1.4319955 255 11 117
-4.5813351 -4.9667234 -1.5395157 255 11 117
0.14741585 -4.8985696 -1.4582496 255 11 117
0.52771944 -4.9007888 -1.4488605 255 11 117
0.55492014 -4.8927379 -1.469443 255 11 117
0.96981037 -4.9099202 -1.4299049 255 11 117
0.99233866 -4.8924685 -1.4370158 255 11 117
1.0725292 -4.8620725 -1.4499507 255 11 117
1.1684545 -4.8886452 -1.4430157 255 11 117
1.2295932 -4.8883119 -1.4452624 255 11 117
-4.5675097 -4.9402099 -1.5549374 255 11 117
0.13796034 -4.844943 -1.4526777 255 11 117
0.14366005 -4.8452644 -1.4535151 255 11 117
0.52833974 -4.8408442 -1.4328902 255 11 117
0.55477136 -4.8527112 -1.4519961 255 11 117
0.98047727 -4.8288369 -1.41831 255 11 117
1.0355846 -4.8383069 -1.4578273 255 11 117
1.0615042 -4.8228164 -1.4418461 255 11 117
1.1331912 -4.8232694 -1.4582565 255 11 117
1.1543063 -4.8124781 -1.4444765 255 11 117
1.2151692 -4.8283334 -1.4390124 255 11 117
-4.4950619 -4.8582282 -1.5175412 255 11 117
0.1343881 -4.7968478 -1.452062 255 11 117
0.13983692 -4.7936978 -1.4431978 255 11 117
0.53579336 -4.790853 -1.4331605 255 11 117
0.64131439 -4.7689161 -1.4507995 255 11 117
0.71853226 -4.7744055 -1.4175488 255 11 117
0.76655275 -4.7742615 -1.4192147 255 11 117
0.80838859 -4.7786393 -1.4195321 255 11 117
0.86471272 -4.783277 -1.4174659 255 11 117
0.92019117 -4.7731643 -1.4169323 255 11 117
0.94907933 -4.7781301 -1.4174027 255 11 117
1.0197675 -4.7909069 -1.4357734 255 11 117
1.0620368 -4.7838879 -1.4372411 255 11 117
1.1049672 -4.7641602 -1.4499485 255 11 117
1.1512011 -4.7962108 -1.4374168 255 11 117
1.1966964 -4.780427 -1.4215044 255 11 117
-4.4777665 -4.8181949 -1.5123609 255 11 117
0.083560884 -4.7292666 -1.4183731 255 11 117
0.11649597 -4.7342916 -1.4320779 255 11 117
0.53277683 -4.7515702 -1.418793 255 11 117
0.53765583 -4.7370238 -1.4140427 255 11 117
0.63608879 -4.7321734 -1.4414859 255 11 117
0.6467002 -4.7300239 -1.4416475 255 11 117
0.71022743 -4.7529469 -1.4178791 255 11 117
0.76165462 -4.7430663 -1.4191175 255 11 117
0.81257564 -4.7463636 -1.420059 255 11 117
0.8643986 -4.7447066 -1.4192557 255 11 117
0.90716976 -4.7439742 -1.4129322 255 11 117
0.95237857 -4.7311525 -1.4088786 255 11 117
1.02373 -4.7318187 -1.4398112 255 11 117
1.0576152 -4.728765 -1.4249381 255 11 117
1.1149756 -4.7278161 -1.4285594 255 11 117
1.1781496 -4.7190671 -1.4236 255 11 117
1.1928128 -4.7372351 -1.4257249 255 11 117
-4.4651589 -4.7771921 -1.5141089 255 11 117
-4.4592452 -4.7639713 -1.5020168 255 11 117
0.077280559 -4.7065077 -1.420012 255 11 117
0.10328173 -4.7148943 -1.433288 255 11 117
0.53037906 -4.6917214 -1.4054176 255 11 117
0.54181272 -4.6770387 -1.4037323 255 11 117
0.63686186 -4.7103672 -1.4507596 255 11 117
0.65592039 -4.6975994 -1.4340446 255 11 117
0.7122435 -4.6935239 -1.4063816 255 11 117
0.77332741 -4.691865 -1.4091895 255 11 117
0.81335002 -4.6970692 -1.4071603 255 11 117
0.86073649 -4.6955643 -1.4059764 255 11 117
0.91821933 -4.6949992 -1.4040207 255 11 117
0.94706482 -4.7027292 -1.4056489 255 11 117
1.0148503 -4.679616 -1.4313209 255 11 117
1.0567498 -4.6916528 -1.4156876 255 11 117
1.1175855 -4.6880708 -1.43103 255 11 117
1.176273 -4.6792588 -1.4050448 255 11 117
-4.4643149 -4.7203879 -1.5024087 255 11 117
-4.4606504 -4.7189803 -1.4976497 255 11 117
0.076417699 -4.6524029 -1.4112654 255 11 117
0.10138482 -4.6565938 -1.4325997 255 11 117
0.1386856 -4.634305 -1.4459178 255 11 117
0.62454867 -4.6563678 -1.401708 255 11 117
0.6610359 -4.6349821 -1.4185196 255 11 117
0.73178726 -4.6403022 -1.3936467 255 11 117
0.77823508 -4.6621017 -1.398036 255 11 117
0.89472187 -4.6619768 -1.3943355 255 11 117
1.0018799 -4.6329713 -1.4067667 255 11 117
1.0624441 -4.6361113 -1.4046769 255 11 117
1.1025664 -4.6315994 -1.418921 255 11 117
1.1657063 -4.6232643 -1.4176003 255 11 117
-4.4513664 -4.666882 -1.4900663 255 11 117
0.077304766 -4.6087728 -1.4031527 255 11 117
0.11028216 -4.594902 -1.4277494 255 11 117
0.66101474 -4.5897737 -1.4119368 255 11 117
0.97331464 -4.5702982 -1.3817241 255 11 117
1.0020387 -4.5890603 -1.4133449 255 11 117
1.067582 -4.5878615 -1.3895141 255 11 117
1.095915 -4.5890822 -1.4161825 255 11 117
1.1536707 -4.585381 -1.4129362 255 11 117
-4.4413476 -4.6244793 -1.4867895 255 11 117
0.08264669 -4.5504007 -1.3914597 255 11 117
0.11402716 -4.5472817 -1.4228921 255 11 117
0.65928817 -4.5438089 -1.4099996 255 11 117
0.97855139 -4.5221143 -1.3894155 255 11 117
0.9902786 -4.5362396 -1.4110632 255 11 117
1.0727271 -4.5388336 -1.3860027 255 11 117
1.1015552 -4.5243006 -1.3998278 255 11 117
1.1401275 -4.5342889 -1.398139 255 11 117
-4.4313459 -4.5787239 -1.4814789 255 11 117
0.10584107 -4.5010843 -1.4053515 255 11 117
0.66543186 -4.4868269 -1.3981452 255 11 117
0.97323227 -4.4871035 -1.3925326 255 11 117
0.98765314 -4.4961958 -1.4155607 255 11 117
1.0771049 -4.4861593 -1.3990633 255 11 117
1.1185846 -4.4828777 -1.395256 255 11 117
1.1341426 -4.5046797 -1.4093567 255 11 117
-4.4214559 -4.5257535 -1.4743726 255 11 117
-4.4159684 -4.5021353 -1.4596574 255 11 117
0.02526468 -4.4345455 -1.3826637 255 11 117
0.0582093 -4.4373465 -1.3902451 255 11 117
0.095386103 -4.4380903 -1.4019053 255 11 117
0.67518377 -4.4491534 -1.3895774 255 11 117
0.70784199 -4.4254389 -1.3674617 255 11 117
0.74980927 -4.4239345 -1.3661898 255 11 117
0.80314744 -4.4241257 -1.3666308 255 11 117
0.86041898 -4.4206595 -1.367223 255 11 117
0.90603298 -4.4213276 -1.3646718 255 11 117
0.952205 -4.4306059 -1.376418 255 11 117
1.0703402 -4.4266286 -1.3847606 255 11 117
1.1037307 -4.4322538 -1.3869642 255 11 117
-4.4114337 -4.4704475 -1.4687092 255 11 117
-0.070801087 -4.387794 -1.3785949 255 11 117
-0.044795025 -4.3948379 -1.3816435 255 11 117
0.009936857 -4.4004812 -1.395071 255 11 117
0.054968715 -4.4196434 -1.4083164 255 11 117
0.089335583 -4.4230714 -1.4026339 255 11 117
0.67898482 -4.4037175 -1.3891513 255 11 117
0.70482713 -4.3913131 -1.3785601 255 11 117
0.75740474 -4.3907995 -1.3786254 255 11 117
0.807845 -4.3896899 -1.3777597 255 11 117
0.85802972 -4.3882589 -1.3791549 255 11 117
0.90772617 -4.3876266 -1.3791158 255 11 117
0.94514376 -4.3881717 -1.3835466 255 11 117
1.0729872 -4.4022665 -1.3824534 255 11 117
1.0880692 -4.4043121 -1.3856013 255 11 117
-4.4036369 -4.4375138 -1.4552543 255 11 117
-0.074305765 -4.3543797 -1.371752 255 11 117
-0.040010333 -4.3594604 -1.3962922 255 11 117
-0.010014554 -4.3710256 -1.3990355 255 11 117
0.70521283 -4.3589301 -1.3906004 255 11 117
0.75556964 -4.3584003 -1.3898039 255 11 117
0.80306941 -4.3601775 -1.3888459 255 11 117
0.8525604 -4.3586893 -1.3887538 255 11 117
0.90780765 -4.3577681 -1.3903077 255 11 117
0.94201899 -4.3568759 -1.3870828 255 11 117
-0.074483588 -4.3097825 -1.3690922 255 11 117
-0.056437127 -4.3037691 -1.3909984 255 11 117
-0.078115702 -4.2482538 -1.3710203 255 11 117
-0.061835274 -4.2548184 -1.3878529 255 11 117
-0.083120838 -4.2094722 -1.3744667 255 11 117
-0.06728746 -4.2145171 -1.3857014 255 11 117
-0.089228742 -4.1624398 -1.3627849 255 11 117
-0.071176194 -4.1591802 -1.3634653 255 11 117
-0.090665832 -4.1150875 -1.3543093 255 11 117
-0.071592048 -4.1144381 -1.3489819 255 11 117
-0.092602797 -4.0713649 -1.3424867 255 11 117
-0.082010671 -4.011301 -1.3349214 255 11 117
-0.073811196 -4.013412 -1.3419404 255 11 117
-0.07900162 -3.9770231 -1.3209255 255 11 117
-0.082668446 -3.8446608 -1.3069086 255 11 117
-0.079265922 -3.8278422 -1.3130798 255 11 117
-0.082958773 -3.7494917 -1.3045409 255 11 117
-0.084813349 -3.7039058 -1.3060632 255 11 117
-0.9405157 -3.6639872 -1.3340664 255 11 117
-0.91047156 -3.6849751 -1.3322183 255 11 117
-0.085349321 -3.6573231 -1.2936451 255 11 117
-0.076324359 -3.6672618 -1.3025596 255 11 117
-0.92510402 -3.6078343 -1.3225844 255 11 117
-0.087169737 -3.616878 -1.2898741 255 11 117
-0.89974034 -3.5690598 -1.308255 255 11 117
-0.87796241 -3.5530622 -1.3150079 255 11 117
-0.086003534 -3.5515518 -1.2759564 255 11 117
-0.082071096 -3.548645 -1.2916168 255 11 117
-0.90233105 -3.5232446 -1.2870381 255 11 117
-0.87277597 -3.5268545 -1.2893435 255 11 117
-0.086646885 -3.4979448 -1.2966683 255 11 117
-0.88979286 -3.4885626 -1.2964377 255 11 117
-0.8633911 -3.4756768 -1.2792833 255 11 117
-0.85443091 -3.4275711 -1.2821925 255 11 117
-0.83721966 -3.3817019 -1.2838438 255 11 117
-0.82429463 -3.3532848 -1.2808384 255 11 117
-0.85207903 -3.3229783 -1.2528899 255 11 117
-0.82669139 -3.3195331 -1.2490807 255 11 117
-0.84562498 -3.2760913 -1.2658305 255 11 117
-0.81558305 -3.2760952 -1.2555988 255 11 117
-0.083365664 -3.2674665 -1.253688 255 11 117
-0.81525153 -3.226371 -1.2428029 255 11 117
-0.09086217 -3.1897249 -1.2493858 255 11 117
-0.082595214 -3.1969361 -1.2436233 255 11 117
-0.80828851 -3.1759946 -1.2328185 255 11 117
-0.78520232 -3.1623735 -1.2291415 255 11 117
-0.206616 -3.1466877 -1.2433435 255 11 117
-0.16427156 -3.1498051 -1.2335676 255 11 117
-0.10768875 -3.154809 -1.2332127 255 11 117
-0.083088778 -3.1706829 -1.2285663 255 11 117
-0.80154324 -3.1388307 -1.2144527 255 11 117
-0.76535034 -3.129632 -1.2177424 255 11 117
-0.50864333 -3.1013403 -1.2097454 255 11 117
-0.24539055 -3.1070845 -1.2170446 255 11 117
-0.21440093 -3.120208 -1.2246215 255 11 117
-0.16554569 -3.1257553 -1.2237588 255 11 117
-0.11937241 -3.1249704 -1.2226205 255 11 117
-0.077582113 -3.1258168 -1.2170312 255 11 117
-0.79221487 -3.0892158 -1.207708 255 11 117
-0.76089442 -3.0980406 -1.21733 255 11 117
-0.73722368 -3.0916114 -1.2049456 255 11 117
-0.54979688 -3.0735235 -1.2124248 255 11 117
-0.50873876 -3.0816076 -1.2144872 255 11 117
-0.48794362 -3.0621002 -1.2134508 255 11 117
-0.24689133 -3.0807233 -1.2081492 255 11 117
-0.21922882 -3.0810368 -1.2096226 255 11 117
-0.15838915 -3.0668969 -1.2256339 255 11 117
-0.11767203 -3.0712082 -1.2227211 255 11 117
-0.090202153 -3.0554223 -1.2222705 255 11 117
-0.74258775 -3.0449045 -1.1996133 255 11 117
-0.54708207 -3.0287049 -1.2066734 255 11 117
-0.51315027 -3.0297062 -1.2061372 255 11 117
-0.48701882 -3.0312715 -1.2079879 255 11 117
-0.22116023 -3.0241983 -1.2063961 255 11 117
-0.164547 -3.014529 -1.2056478 255 11 117
-0.11780229 -3.0118589 -1.1996253 255 11 117
-0.077628061 -3.0225108 -1.2059661 255 11 117
0.93274891 -2.9749579 -1.214669 255 11 117
-0.51437217 -2.9792714 -1.1929848 255 11 117
-0.49124581 -2.9878368 -1.2003299 255 11 117
-0.20326529 -2.9488966 -1.1821289 255 11 117
-0.14966537 -2.9635818 -1.1869118 255 11 117
-0.12134433 -2.9807761 -1.1877381 255 11 117
-0.07946907 -2.9865794 -1.1919811 255 11 117
0.92098665 -2.9258006 -1.1982224 255 11 117
-0.49124715 -2.9503617 -1.1823567 255 11 117
-0.19509791 -2.9438677 -1.1764987 255 11 117
-0.10654776 -2.9301 -1.1755095 255 11 117
0.90170836 -2.8784754 -1.1800035 255 11 117
0.89651716 -2.8472359 -1.1872084 255 11 117
0.8814615 -2.7903678 -1.1669066 255 11 117
0.84539741 -2.7311568 -1.1759135 255 11 117
0.86824304 -2.747695 -1.1596527 255 11 117
0.8397702 -2.6839783 -1.1498874 255 11 117
0.87088203 -2.7022014 -1.1536478 255 11 117
0.83427274 -2.6549342 -1.1501479 255 11 117
0.88485748 -2.6514452 -1.1454605 255 11 117
0.90160125 -2.6370947 -1.130327 255 11 117
0.52252698 -2.6127725 -1.1623284 255 11 117
0.82684165 -2.6174455 -1.1379442 255 11 117
0.89000607 -2.6104374 -1.1425512 255 11 117
0.90189624 -2.596137 -1.1355892 255 11 117
0.49065113 -2.5498295 -1.1536409 255 11 117
0.52905214 -2.5515437 -1.1405678 255 11 117
0.57045466 -2.549475 -1.1289628 255 11 117
0.61566752 -2.5433784 -1.1206493 255 11 117
0.65743011 -2.5419197 -1.1136289 255 11 117
0.79387468 -2.5352073 -1.1494576 255 11 117
0.81340694 -2.5779386 -1.1514614 255 11 117
0.88979846 -2.5584264 -1.1338584 255 11 117
0.48010343 -2.5127687 -1.1417596 255 11 117
0.52366185 -2.5138941 -1.1353927 255 11 117
0.5753057 -2.5168746 -1.1250181 255 11 117
0.61988682 -2.5187135 -1.1194415 255 11 117
0.66337055 -2.521723 -1.112698 255 11 117
0.79588622 -2.5293038 -1.1314248 255 11 117
0.8022483 -2.4979076 -1.1263967 255 11 117
0.44278601 -2.4390323 -1.124313 255 11 117
0.47430414 -2.4717298 -1.1314259 255 11 117
0.53080463 -2.4723377 -1.1233916 255 11 117
0.57202691 -2.4745564 -1.1170795 255 11 117
0.61665887 -2.473485 -1.1073449 255 11 117
0.79586244 -2.4834249 -1.1001784 255 11 117
0.43476522 -2.4148982 -1.1310381 255 11 117
0.45557633 -2.4138179 -1.114352 255 11 117
0.52444029 -2.4124146 -1.1034627 255 11 117
0.56273389 -2.4348769 -1.1069661 255 11 117
0.60833758 -2.4161642 -1.0968299 255 11 117
0.77882117 -2.3966508 -1.089125 255 11 117
0.47281614 -2.390188 -1.0919137 255 11 117
0.53339607 -2.3475242 -1.1074309 255 11 117
0.76819199 -2.3467112 -1.081355 255 11 117
-1.4440576 -2.3201859 -1.1538057 255 11 117
0.53062522 -2.3268023 -1.1014661 255 11 117
0.73255104 -2.3214283 -1.1256943 255 11 117
0.75889963 -2.3092198 -1.120791 255 11 117
-1.6255379 -2.2757981 -1.1213987 255 11 117
-1.4278654 -2.2884879 -1.1449056 255 11 117
-1.4027379 -2.2719426 -1.1304842 255 11 117
0.43796018 -2.2593131 -1.0889174 255 11 117
0.51942509 -2.2845862 -1.0796838 255 11 117
0.72403955 -2.2558851 -1.0925446 255 11 117
0.76537347 -2.2560697 -1.1115794 255 11 117
0.802037 -2.2545152 -1.1162704 255 11 117
-1.621052 -2.2394919 -1.1316619 255 11 117
-1.6052037 -2.244288 -1.1112148 255 11 117
-1.4135402 -2.2500336 -1.122179 255 11 117
-1.3931053 -2.2427104 -1.1185828 255 11 117
-1.3545099 -2.2194057 -1.1437432 255 11 117
0.3625018 -2.21222 -1.111376 255 11 117
0.71849126 -2.2277839 -1.078444 255 11 117
0.77930582 -2.2104754 -1.1027882 255 11 117
-1.6129266 -2.2024746 -1.1366563 255 11 117
-1.5907381 -2.1846936 -1.1141732 255 11 117
-1.3726157 -2.1974363 -1.1122279 255 11 117
-1.3454552 -2.1832559 -1.1217425 255 11 117
0.27013507 -2.1481709 -1.1110259 255 11 117
0.32543668 -2.1730318 -1.1032256 255 11 117
0.37207454 -2.1718774 -1.0947903 255 11 117
0.51957536 -2.1446671 -1.1040076 255 11 117
0.74107391 -2.1485767 -1.0896416 255 11 117
0.76018411 -2.1603508 -1.0938847 255 11 117
-1.5781583 -2.144721 -1.1145489 255 11 117
-1.36432 -2.1650114 -1.1002808 255 11 117
-1.3339719 -2.1417542 -1.1072934 255 11 117
-1.3033446 -2.1256514 -1.1160969 255 11 117
0.010470807 -2.1304622 -1.0925912 255 11 117
0.27097794 -2.1172698 -1.0964727 255 11 117
0.33041215 -2.1031327 -1.0897911 255 11 117
0.3575466 -2.1113796 -1.0741099 255 11 117
0.42976341 -2.1009181 -1.0916481 255 11 117
0.46032536 -2.0997412 -1.0888321 255 11 117
0.51813102 -2.1061633 -1.0942956 255 11 117
0.55161864 -2.1004236 -1.0956695 255 11 117
0.62386191 -2.098223 -1.0950803 255 11 117
0.6461212 -2.0954878 -1.0954826 255 11 117
0.72801179 -2.1002541 -1.0746083 255 11 117
0.75451839 -2.1120222 -1.0810404 255 11 117
-1.5680922 -2.1055007 -1.1194819 255 11 117
-1.5483507 -2.0937173 -1.0970703 255 11 117
-1.4662899 -2.0789006 -1.082942 255 11 117
-1.4252162 -2.0806749 -1.0937237 255 11 117
-1.37695 -2.0901692 -1.1006041 255 11 117
-1.3388313 -2.1039212 -1.1064953 255 11 117
-1.2960397 -2.0962288 -1.1085646 255 11 117
-0.73787403 -2.0764954 -1.1080704 255 11 117
0.0063273897 -2.0523849 -1.0758041 255 11 117
0.28037298 -2.0692642 -1.0930288 255 11 117
0.32195938 -2.0648339 -1.0803787 255 11 117
0.36295027 -2.0607114 -1.0731709 255 11 117
0.41744328 -2.0631354 -1.0725002 255 11 117
0.45573828 -2.0678184 -1.0768802 255 11 117
0.52469325 -2.0632684 -1.0731261 255 11 117
0.55940109 -2.0599086 -1.0805964 255 11 117
0.62318218 -2.062602 -1.0816278 255 11 117
0.64381456 -2.0622087 -1.0877521 255 11 117
0.72033715 -2.0580542 -1.0715929 255 11 117
0.76164097 -2.0566785 -1.0643713 255 11 117
-1.5259298 -2.0456636 -1.1008236 255 11 117
-1.4821568 -2.0488467 -1.0937012 255 11 117
-1.4365139 -2.0488997 -1.0976527 255 11 117
-1.3888748 -2.0418248 -1.0981698 255 11 117
-1.3310579 -2.0307908 -1.0958616 255 11 117
-1.2943836 -2.0470793 -1.0966032 255 11 117
-1.2518152 -2.0238273 -1.1097363 255 11 117
0.010991416 -2.0215616 -1.0669531 255 11 117
0.27985305 -2.0209157 -1.0797848 255 11 117
0.31877649 -2.0195017 -1.0716064 255 11 117
0.36627051 -2.0174952 -1.0674824 255 11 117
0.41257912 -2.0307477 -1.061834 255 11 117
0.45690912 -2.0291214 -1.0580583 255 11 117
0.5190236 -2.021662 -1.0666639 255 11 117
0.5617528 -2.0152693 -1.0672706 255 11 117
0.61464769 -2.0166266 -1.0593276 255 11 117
0.6704089 -2.0066543 -1.0636301 255 11 117
0.70654243 -2.0074644 -1.0732037 255 11 117
-1.5174749 -2.0088444 -1.10571 255 11 117
-1.4850906 -2.0037813 -1.0931842 255 11 117
-1.4380804 -2.0005982 -1.0912331 255 11 117
-1.3902719 -2.0002043 -1.0904741 255 11 117
-1.3344065 -2.0057199 -1.0889219 255 11 117
-1.287647 -2.0123229 -1.0870869 255 11 117
-1.2420132 -1.994156 -1.0936838 255 11 117
-1.2116339 -1.9727811 -1.0610977 255 11 117
-0.70970321 -1.9907078 -1.1028557 255 11 117
0.0099875545 -1.981217 -1.0524784 255 11 117
0.28172511 -1.9759928 -1.051985 255 11 117
0.3234646 -1.9720351 -1.0676315 255 11 117
0.35860509 -1.9770247 -1.063686 255 11 117
0.40154225 -1.9825851 -1.0454718 255 11 117
0.46282127 -1.9830295 -1.062115 255 11 117
0.52244419 -1.9624988 -1.0656174 255 11 117
0.56146371 -1.9622475 -1.0577042 255 11 117
0.61668962 -1.9557725 -1.0524758 255 11 117
0.66163707 -1.9620415 -1.0611883 255 11 117
0.70173812 -1.9675606 -1.0690206 255 11 117
-1.4809899 -1.9676331 -1.0965317 255 11 117
-1.4590585 -1.971939 -1.0895636 255 11 117
-1.379301 -1.959489 -1.0955136 255 11 117
-1.339223 -1.9549514 -1.0782478 255 11 117
-1.2357342 -1.9636775 -1.076197 255 11 117
-1.1984664 -1.9688288 -1.0654246 255 11 117
-0.68585759 -1.9336628 -1.0779066 255 11 117
0.27185002 -1.9283317 -1.0366714 255 11 117
0.31852153 -1.9222685 -1.0571234 255 11 117
0.34801495 -1.9285599 -1.0531728 255 11 117
0.39569101 -1.9107581 -1.068768 255 11 117
0.46598837 -1.9046301 -1.0390679 255 11 117
0.52692193 -1.9141167 -1.058049 255 11 117
0.56376034 -1.9199868 -1.0532358 255 11 117
0.61157137 -1.9251522 -1.05156 255 11 117
0.65589148 -1.9248646 -1.055367 255 11 117
0.70732319 -1.9168929 -1.0440866 255 11 117
-1.3370471 -1.9191383 -1.0940942 255 11 117
-1.1933657 -1.9132932 -1.0855985 255 11 117
-0.67758805 -1.8900167 -1.0623386 255 11 117
-0.66098732 -1.8705806 -1.0485601 255 11 117
0.3110089 -1.8658568 -1.0492446 255 11 117
0.47226667 -1.8704818 -1.0567153 255 11 117
0.52350521 -1.867854 -1.0434775 255 11 117
0.55536819 -1.8740586 -1.0383828 255 11 117
0.61141628 -1.8732535 -1.045441 255 11 117
0.65566552 -1.8684691 -1.040634 255 11 117
-1.3159342 -1.8655568 -1.0870856 255 11 117
-0.67215902 -1.8529848 -1.0573545 255 11 117
-0.64664549 -1.8350004 -1.0469958 255 11 117
0.31269541 -1.8131032 -1.044505 255 11 117
0.46151468 -1.8159834 -1.0470288 255 11 117
0.51496965 -1.8191944 -1.0373673 255 11 117
0.55423927 -1.8200749 -1.0354182 255 11 117
0.60715055 -1.8194821 -1.0367208 255 11 117
0.64242721 -1.8143015 -1.0345038 255 11 117
-0.68711776 -1.7817638 -1.0548117 255 11 117
-0.63357055 -1.7827482 -1.0435947 255 11 117
0.3094691 -1.7736384 -1.03256 255 11 117
0.35512674 -1.7537034 -1.0517292 255 11 117
0.41197166 -1.7669019 -1.0398562 255 11 117
0.46950647 -1.7743413 -1.0299938 255 11 117
0.51413327 -1.7737482 -1.0285 255 11 117
0.55455333 -1.7781601 -1.0219678 255 11 117
0.61315584 -1.7676967 -1.0253012 255 11 117
0.63694054 -1.7900652 -1.0282381 255 11 117
-0.67383844 -1.7320284 -1.0457489 255 11 117
-0.6290729 -1.7396802 -1.0449015 255 11 117
-0.61172307 -1.7246008 -1.033476 255 11 117
0.30724913 -1.7340384 -1.0297077 255 11 117
0.36304367 -1.7106805 -1.0245292 255 11 117
0.40681681 -1.7225006 -1.0125803 255 11 117
0.4711667 -1.7257689 -1.0176495 255 11 117
0.51037651 -1.7233073 -1.0196389 255 11 117
0.54757708 -1.7342204 -1.0078458 255 11 117
0.60310149 -1.7282978 -1.0090036 255 11 117
-0.66671699 -1.7048835 -1.05437 255 11 117
-0.65351635 -1.6929628 -1.0356503 255 11 117
-0.59869188 -1.683019 -1.0384488 255 11 117
0.30607307 -1.6817442 -1.0123743 255 11 117
0.34560204 -1.6683044 -1.0244333 255 11 117
0.47083429 -1.6815232 -1.0070838 255 11 117
0.48806638 -1.6682547 -1.0328583 255 11 117
-0.63813376 -1.6513135 -1.0169245 255 11 117
-0.59185171 -1.6359479 -1.0290593 255 11 117
0.3114295 -1.616909 -1.0038265 255 11 117
0.34826845 -1.6424986 -1.0055857 255 11 117
0.46079218 -1.6171671 -1.0056225 255 11 117
-0.6270799 -1.6020632 -1.009908 255 11 117
-0.58505601 -1.5973465 -1.0078335 255 11 117
-0.56541449 -1.5819839 -1.0103328 255 11 117
0.31278926 -1.5735422 -0.98960495 255 11 117
0.45877832 -1.5742583 -0.99599361 255 11 117
-0.59107345 -1.5375607 -1.0147684 255 11 117
-0.55899543 -1.550508 -0.9975903 255 11 117
0.312309 -1.550651 -0.98961926 255 11 117
0.44010067 -1.5341347 -0.9771775 255 11 117
-0.5894134 -1.4799885 -0.99474072 255 11 117
-0.87125134 -1.4453381 -1.0279016 255 11 117
-0.86747807 -1.434014 -1.0273551 255 11 117
-0.60483915 -1.4449452 -1.0168066 255 11 117
-0.55896604 -1.4323765 -0.9979372 255 11 117
0.39592165 -1.4029357 -0.99340332 255 11 117
-0.89125794 -1.3948427 -1.0227572 255 11 117
-0.84938663 -1.3873694 -1.0206089 255 11 117
-0.58766872 -1.4082479 -0.9990685 255 11 117
-0.55450684 -1.3887532 -1.0038949 255 11 117
-0.45735607 -1.3600169 -1.014065 255 11 117
-0.38957283 -1.3639942 -1.010242 255 11 117
-0.35129011 -1.3635657 -1.0113813 255 11 117
-0.29696578 -1.3594198 -1.0095916 255 11 117
-0.25431755 -1.359027 -1.0092002 255 11 117
-0.21712208 -1.3606051 -1.0104526 255 11 117
-0.14955351 -1.3614824 -1.0081288 255 11 117
-0.090607442 -1.3602451 -1.0069883 255 11 117
-0.046347424 -1.3585761 -1.0049849 255 11 117
-0.0014639953 -1.3561745 -1.0055851 255 11 117
0.37507647 -1.3606516 -0.96524239 255 11 117
0.39783999 -1.3782247 -0.99138379 255 11 117
-0.88281649 -1.3442416 -1.0154461 255 11 117
-0.83500481 -1.339183 -1.0068443 255 11 117
-0.8210184 -1.3288631 -0.98818612 255 11 117
-0.53966546 -1.3403755 -0.99463904 255 11 117
-0.49267614 -1.3271596 -1.0004199 255 11 117
-0.44564858 -1.3284785 -1.0014821 255 11 117
-0.39816657 -1.3268511 -0.9987582 255 11 117
-0.34912047 -1.3264261 -0.99863958 255 11 117
-0.30201915 -1.3244729 -0.99854219 255 11 117
-0.2475249 -1.322034 -0.99804831 255 11 117
-0.19763909 -1.3236033 -0.99468279 255 11 117
-0.14955501 -1.3239619 -0.99488139 255 11 117
-0.097100429 -1.3213587 -0.99362218 255 11 117
-0.046294931 -1.3185906 -0.9936471 255 11 117
-0.0020341631 -1.3166795 -0.9922539 255 11 117
0.051046453 -1.3168457 -0.99298096 255 11 117
0.10148068 -1.3158878 -0.99154365 255 11 117
0.13752186 -1.3100936 -0.99440217 255 11 117
0.38739827 -1.3310637 -0.96055865 255 11 117
-0.93138438 -1.2829469 -1.0015213 255 11 117
-0.89178604 -1.2858697 -1.0075001 255 11 117
-0.84743488 -1.2969644 -1.0036592 255 11 117
-0.80998158 -1.2875843 -0.99110222 255 11 117
-0.5328216 -1.3015416 -0.98633301 255 11 117
-0.49161538 -1.2901056 -0.99162769 255 11 117
-0.44454134 -1.2871648 -0.9835335 255 11 117
-0.39732015 -1.2878352 -0.98433638 255 11 117
-0.34957308 -1.2861898 -0.98234022 255 11 117
-0.2995027 -1.2862471 -0.98114049 255 11 117
-0.25216067 -1.2854861 -0.97918272 255 11 117
-0.1994758 -1.2815111 -0.98298502 255 11 117
-0.14805005 -1.2809098 -0.98099303 255 11 117
-0.097032055 -1.2808422 -0.97989869 255 11 117
-0.049911037 -1.2815577 -0.97962439 255 11 117
0.0002830904 -1.2785153 -0.97799575 255 11 117
0.048953526 -1.2772912 -0.97632301 255 11 117
0.098390423 -1.2764072 -0.97607529 255 11 117
0.14198808 -1.2727605 -0.97998738 255 11 117
0.17789865 -1.2615668 -0.98794949 255 11 117
0.52062654 -1.2535044 -0.97879517 255 11 117
0.54238093 -1.2521458 -0.97380924 255 11 117
-0.92534852 -1.2379826 -1.0032932 255 11 117
-0.89549345 -1.2342881 -0.99829745 255 11 117
-0.84811717 -1.2356819 -0.99747479 255 11 117
-0.79940623 -1.2427965 -0.98739779 255 11 117
-0.77417874 -1.2206593 -0.97997069 255 11 117
-0.49166021 -1.2335131 -0.98332024 255 11 117
-0.44831076 -1.238078 -0.97444642 255 11 117
-0.40416914 -1.2425765 -0.9690448 255 11 117
-0.34914443 -1.2493407 -0.96828353 255 11 117
-0.29877913 -1.2504166 -0.96706319 255 11 117
-0.25294164 -1.2506768 -0.96511912 255 11 117
-0.19695488 -1.2473602 -0.96356046 255 11 117
-0.14709607 -1.2440282 -0.96282101 255 11 117
-0.099842146 -1.2462734 -0.96512902 255 11 117
-0.049938243 -1.2429746 -0.96657395 255 11 117
-0.0025436888 -1.2418817 -0.96578181 255 11 117
0.047798019 -1.2442317 -0.96571302 255 11 117
0.10329497 -1.2388704 -0.96222079 255 11 117
0.1450547 -1.2347382 -0.96296465 255 11 117
