ply
format ascii 1.0
comment PCL generated
element vertex 1046
property float x
property float y
property float z
property uchar red
property uchar green
property uchar blue
element camera 0
property float view_px
property float view_py
property float view_pz
property float x_axisx
property float x_axisy
property float x_axisz
property float y_axisx
property float y_axisy
property float y_axisz
property float z_axisx
property float z_axisy
property float z_axisz
property float focal
property float scalex
property float scaley
property float centerx
property float centery
property int viewportx
property int viewporty
property float k1
property float k2
end_header
0.63523757 -5.9579601 -0.59935135 255 11 117
0.73083425 -5.9780498 -0.58090907 255 11 117
0.77368814 -5.9743314 -0.56515646 255 11 117
0.81667745 -5.976603 -0.58326417 255 11 117
-4.6664429 -5.9227648 -0.58605438 255 11 117
-4.6044946 -5.9488945 -0.59838814 255 11 117
-4.599813 -5.9150286 -0.57810801 255 11 117
-4.5311136 -5.9309897 -0.5856567 255 11 117
-4.4795337 -5.9125357 -0.57117516 255 11 117
-2.4523401 -5.9275279 -0.57518125 255 11 117
-2.4457088 -5.9230123 -0.57129377 255 11 117
-2.3112924 -5.9211936 -0.57720804 255 11 117
-2.29106 -5.9268546 -0.5779832 255 11 117
-2.2201581 -5.9441743 -0.5817064 255 11 117
-2.1986566 -5.9487028 -0.58215362 255 11 117
-2.1092045 -5.9497766 -0.5721215 255 11 117
-2.0852985 -5.9463091 -0.59704536 255 11 117
-1.7771171 -5.9407749 -0.55949402 255 11 117
0.27842602 -5.9211898 -0.56539708 255 11 117
0.32670319 -5.931818 -0.57313687 255 11 117
0.37541252 -5.9222279 -0.57939452 255 11 117
0.40063217 -5.9442201 -0.59848428 255 11 117
0.63209701 -5.9414148 -0.59761071 255 11 117
0.65323114 -5.9215922 -0.59873486 255 11 117
0.74422663 -5.9343796 -0.56703907 255 11 117
0.7810939 -5.9214234 -0.55481827 255 11 117
0.81534696 -5.9204931 -0.56243098 255 11 117
-4.6326418 -5.8604412 -0.58855963 255 11 117
-4.5688114 -5.8927507 -0.57422149 255 11 117
-4.5302472 -5.8663735 -0.59000939 255 11 117
-4.3466592 -5.8594494 -0.57004607 255 11 117
-2.5015857 -5.8653288 -0.57836241 255 11 117
-2.4674752 -5.8640957 -0.57349008 255 11 117
-2.4472833 -5.8872881 -0.58369505 255 11 117
-2.3163388 -5.8931928 -0.58709246 255 11 117
-2.2994609 -5.8979669 -0.5787431 255 11 117
0.28591087 -5.8661771 -0.56678772 255 11 117
0.32481477 -5.8739638 -0.57818204 255 11 117
0.37447277 -5.8733611 -0.58170116 255 11 117
0.62106198 -5.8792658 -0.59742081 255 11 117
0.72755384 -5.8588376 -0.59618098 255 11 117
0.78373957 -5.8801966 -0.59721744 255 11 117
0.81750476 -5.8772407 -0.57645822 255 11 117
-4.7094069 -5.8280969 -0.58963042 255 11 117
-4.6788931 -5.8150644 -0.58893549 255 11 117
-4.6042466 -5.8213143 -0.58513528 255 11 117
-4.593482 -5.8069897 -0.58495605 255 11 117
-4.5319204 -5.8275652 -0.56944484 255 11 117
-4.4808674 -5.8380857 -0.5825575 255 11 117
-4.3772712 -5.8150029 -0.55802679 255 11 117
-4.2625041 -5.8439183 -0.59449393 255 11 117
-4.2331471 -5.8110886 -0.58701229 255 11 117
-2.5040576 -5.8412099 -0.57592452 255 11 117
-2.4752123 -5.8447123 -0.57761931 255 11 117
-1.7515626 -5.8480392 -0.55980104 255 11 117
-1.732016 -5.8184972 -0.55844748 255 11 117
0.28784075 -5.820333 -0.55908507 255 11 117
0.332463 -5.8189206 -0.57088596 255 11 117
0.36849123 -5.8207436 -0.58369362 255 11 117
0.6276862 -5.8170958 -0.5963918 255 11 117
0.7209363 -5.8206291 -0.59625423 255 11 117
0.77546901 -5.8189669 -0.5902735 255 11 117
0.81496948 -5.8238072 -0.57763076 255 11 117
0.91900855 -5.8147993 -0.571069 255 11 117
-4.7040377 -5.7846155 -0.58372521 255 11 117
-4.6727061 -5.7748237 -0.58286351 255 11 117
-4.6341004 -5.7705054 -0.58595598 255 11 117
-4.5834098 -5.7923517 -0.57877839 255 11 117
-4.4619513 -5.7890916 -0.58717853 255 11 117
-4.4302855 -5.7666693 -0.57549727 255 11 117
-4.3387122 -5.7822323 -0.55681378 255 11 117
-4.2315502 -5.7662034 -0.59116864 255 11 117
-4.1870856 -5.7549953 -0.5701161 255 11 117
-1.7343875 -5.7798119 -0.55518448 255 11 117
-0.20393707 -5.7871361 -0.55398595 255 11 117
-0.19191121 -5.771131 -0.55769873 255 11 117
0.2906611 -5.7794518 -0.55442929 255 11 117
0.32968932 -5.7826872 -0.57188833 255 11 117
0.3604365 -5.7900238 -0.5864259 255 11 117
0.63404071 -5.7751708 -0.59405261 255 11 117
0.65212107 -5.7623734 -0.59400892 255 11 117
0.72736174 -5.7711711 -0.58992946 255 11 117
0.77501273 -5.7718863 -0.59582269 255 11 117
0.81226629 -5.7780895 -0.58206755 255 11 117
0.89923811 -5.7567501 -0.55530375 255 11 117
0.90666294 -5.7658572 -0.56203675 255 11 117
-4.6751699 -5.7204885 -0.58476591 255 11 117
-4.6088767 -5.7446365 -0.58438671 255 11 117
-4.5786247 -5.7229557 -0.57895517 255 11 117
-4.54006 -5.7299657 -0.57557303 255 11 117
-4.4191937 -5.7393074 -0.57715005 255 11 117
-4.3869858 -5.7192211 -0.56296194 255 11 117
-4.2160053 -5.717844 -0.57590473 255 11 117
-4.1829491 -5.7203317 -0.57077396 255 11 117
-1.7107331 -5.7131729 -0.58086824 255 11 117
-0.18549824 -5.7286811 -0.5545783 255 11 117
0.3409715 -5.7301369 -0.59478074 255 11 117
0.36174038 -5.7274089 -0.59563887 255 11 117
0.63759273 -5.7216144 -0.59133852 255 11 117
0.67660058 -5.7233744 -0.58715391 255 11 117
0.73050278 -5.7272778 -0.58956838 255 11 117
0.7790274 -5.7187638 -0.59199858 255 11 117
0.81309968 -5.7283268 -0.58542967 255 11 117
0.8945778 -5.728097 -0.56110072 255 11 117
0.90458202 -5.7380295 -0.55472416 255 11 117
-4.8114853 -5.6549344 -0.57260299 255 11 117
-4.7834425 -5.659008 -0.57797164 255 11 117
-4.6652946 -5.6764183 -0.58633983 255 11 117
-4.6388283 -5.6847401 -0.5873794 255 11 117
-4.5557952 -5.6897573 -0.57612514 255 11 117
-4.5227771 -5.6751995 -0.57850969 255 11 117
-4.4936256 -5.661242 -0.57276517 255 11 117
-4.4091473 -5.6723762 -0.55194527 255 11 117
-4.3663573 -5.6807442 -0.57633746 255 11 117
-4.3459959 -5.6528072 -0.59440595 255 11 117
-4.2042933 -5.6993103 -0.59103459 255 11 117
-4.1872478 -5.6937566 -0.5685367 255 11 117
-0.19159766 -5.6904106 -0.5502969 255 11 117
0.64284629 -5.6771889 -0.59197408 255 11 117
0.66856766 -5.6645665 -0.58768713 255 11 117
0.72511321 -5.6558433 -0.58611894 255 11 117
0.78460473 -5.6730237 -0.583202 255 11 117
0.81107247 -5.6817446 -0.5797084 255 11 117
0.88401085 -5.674017 -0.56408548 255 11 117
0.90946317 -5.687573 -0.56284434 255 11 117
-4.9589338 -5.6059542 -0.56583709 255 11 117
-4.9212632 -5.6149607 -0.57461143 255 11 117
-4.8793745 -5.6326919 -0.575041 255 11 117
-4.8292513 -5.6448278 -0.57675397 255 11 117
-4.7630854 -5.6461229 -0.58623052 255 11 117
-4.7308187 -5.6306801 -0.5745092 255 11 117
-4.6659164 -5.6318617 -0.57961911 255 11 117
-4.6403565 -5.6261101 -0.57744652 255 11 117
-4.5916138 -5.624321 -0.55695784 255 11 117
-4.5148125 -5.6330967 -0.56679583 255 11 117
-4.477119 -5.6187634 -0.57973069 255 11 117
-4.4437385 -5.6248488 -0.55114764 255 11 117
-1.6876793 -5.6132736 -0.57953465 255 11 117
-0.15831994 -5.6300526 -0.5987823 255 11 117
-0.13772103 -5.6127639 -0.57253462 255 11 117
0.66432875 -5.6223707 -0.58729929 255 11 117
0.71830267 -5.6272869 -0.57965034 255 11 117
0.78962964 -5.6229248 -0.56895173 255 11 117
0.81228602 -5.6239915 -0.57623607 255 11 117
0.8753497 -5.6172976 -0.57682395 255 11 117
-5.0314617 -5.5795884 -0.57648456 255 11 117
-4.9787374 -5.5939927 -0.57664484 255 11 117
-4.9288421 -5.5981388 -0.59910029 255 11 117
-4.6800737 -5.5858617 -0.5771094 255 11 117
-4.6142473 -5.5833864 -0.57204342 255 11 117
-4.5943241 -5.5581918 -0.57263452 255 11 117
-4.4591832 -5.5921106 -0.57546902 255 11 117
-4.4453502 -5.5837569 -0.58891362 255 11 117
-1.6745671 -5.5670485 -0.5757513 255 11 117
-0.20063056 -5.5644541 -0.57896078 255 11 117
-0.17551343 -5.5728068 -0.57636648 255 11 117
-0.13899691 -5.5801105 -0.56757617 255 11 117
0.66913605 -5.5670233 -0.58486205 255 11 117
0.73932153 -5.5852976 -0.57678282 255 11 117
0.77795672 -5.5718498 -0.57854122 255 11 117
0.83235782 -5.5651379 -0.57355499 255 11 117
0.86836237 -5.5786824 -0.58110768 255 11 117
-5.0212846 -5.5343065 -0.59543955 255 11 117
-4.9954448 -5.5063615 -0.57864267 255 11 117
-4.6317515 -5.5400887 -0.57128298 255 11 117
-4.5832462 -5.5303249 -0.57670665 255 11 117
-1.6703092 -5.528801 -0.57023102 255 11 117
-1.6390549 -5.5095267 -0.58250672 255 11 117
-1.3020891 -5.5031233 -0.55480462 255 11 117
-0.13089107 -5.5365295 -0.56088376 255 11 117
0.67886508 -5.5215387 -0.58624732 255 11 117
0.73339272 -5.5137396 -0.58386302 255 11 117
0.75869876 -5.5193353 -0.59000862 255 11 117
0.83632565 -5.5440402 -0.58004314 255 11 117
0.87856722 -5.5218306 -0.58187568 255 11 117
0.91938782 -5.5220022 -0.59577042 255 11 117
-4.9820147 -5.4901423 -0.57207721 255 11 117
-4.5647688 -5.4835815 -0.57038552 255 11 117
-4.5469813 -5.469018 -0.580562 255 11 117
-1.6635742 -5.485878 -0.567177 255 11 117
-1.6320333 -5.4690571 -0.56491882 255 11 117
-1.3041953 -5.4631233 -0.59698379 255 11 117
0.64798284 -5.4750652 -0.59429681 255 11 117
0.68292123 -5.4859309 -0.58777225 255 11 117
0.72402686 -5.4903355 -0.58725685 255 11 117
0.75907123 -5.4975719 -0.5922091 255 11 117
0.88611811 -5.4789457 -0.57822627 255 11 117
0.92641258 -5.4826632 -0.57315063 255 11 117
0.97110564 -5.4713011 -0.56683373 255 11 117
1.0173829 -5.4695644 -0.56045645 255 11 117
-4.9384737 -5.4370217 -0.57501107 255 11 117
-1.6580395 -5.4312849 -0.58254123 255 11 117
-1.6195401 -5.4235439 -0.57651359 255 11 117
-1.2932106 -5.4228711 -0.59782094 255 11 117
0.62608105 -5.4192863 -0.59637052 255 11 117
0.65940338 -5.4248981 -0.59842807 255 11 117
0.88136852 -5.4226899 -0.59326077 255 11 117
0.91892499 -5.432332 -0.59208566 255 11 117
0.97631675 -5.42273 -0.57437807 255 11 117
1.0225852 -5.4368606 -0.56565344 255 11 117
-4.8885255 -5.3747239 -0.58674502 255 11 117
-1.6569501 -5.3850169 -0.58763862 255 11 117
-1.6195103 -5.3859873 -0.57734376 255 11 117
-1.5877622 -5.3649592 -0.57800162 255 11 117
-1.4943312 -5.3529739 -0.59039026 255 11 117
-1.4217793 -5.3544335 -0.59606415 255 11 117
-1.3850166 -5.3530946 -0.59340793 255 11 117
-1.3148947 -5.3534827 -0.57275432 255 11 117
-1.2943656 -5.3617015 -0.57683688 255 11 117
0.63583428 -5.3731418 -0.59703052 255 11 117
0.88294554 -5.3742127 -0.59372079 255 11 117
0.92877358 -5.3698158 -0.58712941 255 11 117
0.97750664 -5.3784604 -0.57351297 255 11 117
1.0144062 -5.377142 -0.56215131 255 11 117
-4.8594046 -5.3407822 -0.57089365 255 11 117
-4.8351493 -5.3109236 -0.56599444 255 11 117
-1.6544214 -5.3111992 -0.58453482 255 11 117
-1.6241367 -5.3191199 -0.59233463 255 11 117
-1.5714611 -5.3176031 -0.57570404 255 11 117
-1.5193287 -5.3068433 -0.57369614 255 11 117
-1.4751089 -5.3137002 -0.57471287 255 11 117
-1.4234078 -5.3248787 -0.57582664 255 11 117
-1.375037 -5.3318624 -0.57572919 255 11 117
-1.3275868 -5.337667 -0.57694912 255 11 117
-1.2849507 -5.3316007 -0.57160026 255 11 117
0.88959795 -5.3239999 -0.59126693 255 11 117
0.92117089 -5.324317 -0.58354896 255 11 117
0.97984159 -5.3244267 -0.57282811 255 11 117
1.0047909 -5.3313379 -0.56152332 255 11 117
-4.8167377 -5.2888761 -0.57552069 255 11 117
-4.7908902 -5.2565517 -0.58303356 255 11 117
-1.6554239 -5.2758055 -0.58957994 255 11 117
-1.6286026 -5.2752752 -0.59035194 255 11 117
-1.5674317 -5.2866859 -0.58918709 255 11 117
-1.5304435 -5.2946196 -0.57468486 255 11 117
-1.4781227 -5.2938743 -0.5927844 255 11 117
-1.4376037 -5.2981386 -0.59667379 255 11 117
-1.2578357 -5.2962737 -0.55534869 255 11 117
0.89614516 -5.2765594 -0.58916289 255 11 117
0.91623098 -5.2669992 -0.58087158 255 11 117
0.97397667 -5.2734084 -0.57060146 255 11 117
-4.7677374 -5.2292862 -0.56301135 255 11 117
-4.7456646 -5.2027779 -0.56528604 255 11 117
0.89791411 -5.2304378 -0.586456 255 11 117
0.91866559 -5.2239432 -0.58446836 255 11 117
0.96816736 -5.2296948 -0.57226658 255 11 117
-4.7274332 -5.1793566 -0.57846594 255 11 117
0.92044008 -5.1737976 -0.58481824 255 11 117
0.97175974 -5.1761003 -0.56147498 255 11 117
-4.6752877 -5.114922 -0.56813079 255 11 117
0.92746496 -5.1223702 -0.5844385 255 11 117
0.96697211 -5.1277237 -0.56021619 255 11 117
-4.6562586 -5.08602 -0.58021063 255 11 117
-4.6433702 -5.0670485 -0.57253397 255 11 117
0.93312228 -5.0774689 -0.58119869 255 11 117
0.96444815 -5.0806394 -0.55787474 255 11 117
-4.6066947 -5.0190229 -0.57971156 255 11 117
-4.5985279 -5.0085611 -0.57444227 255 11 117
0.9415372 -5.0317955 -0.58512187 255 11 117
0.95752913 -5.0149565 -0.56521243 255 11 117
1.3423901 -5.0050197 -0.57243145 255 11 117
-4.6029425 -4.9901896 -0.59898269 255 11 117
-4.5883045 -4.9715934 -0.57839602 255 11 117
0.94600636 -4.97963 -0.57693869 255 11 117
0.95880526 -4.9728141 -0.57638359 255 11 117
1.2997735 -4.9524174 -0.56255805 255 11 117
1.3216527 -4.9725647 -0.56408709 255 11 117
-4.577282 -4.9218745 -0.57346255 255 11 117
-4.5485663 -4.9289942 -0.59680653 255 11 117
0.94660312 -4.936059 -0.55585879 255 11 117
0.9635511 -4.926127 -0.5736087 255 11 117
1.0065264 -4.9485807 -0.55161434 255 11 117
1.1800017 -4.9110646 -0.55363142 255 11 117
1.2335198 -4.9137888 -0.5566054 255 11 117
1.2724564 -4.9210606 -0.55808437 255 11 117
1.3294201 -4.9196267 -0.56321627 255 11 117
-4.6682148 -4.8718815 -0.58782077 255 11 117
-4.6021433 -4.872911 -0.58379859 255 11 117
-4.5665584 -4.881144 -0.56678981 255 11 117
-4.5384011 -4.8775001 -0.59364593 255 11 117
0.97094178 -4.8749843 -0.57241207 255 11 117
1.176917 -4.8882608 -0.55386341 255 11 117
1.2284116 -4.8799372 -0.55851716 255 11 117
1.2688979 -4.8701196 -0.56278211 255 11 117
1.3264875 -4.8850679 -0.56177974 255 11 117
-4.6602049 -4.8493338 -0.58225811 255 11 117
-4.6210241 -4.8241997 -0.58225995 255 11 117
-4.5616379 -4.8217893 -0.5694797 255 11 117
-4.537787 -4.8230252 -0.5879572 255 11 117
0.97654969 -4.8245449 -0.57498753 255 11 117
1.1493713 -4.8006124 -0.55503511 255 11 117
1.1887746 -4.8044567 -0.57262796 255 11 117
1.2267671 -4.8087487 -0.57600099 255 11 117
1.2744863 -4.8117752 -0.58073938 255 11 117
-4.6034174 -4.7922525 -0.58338517 255 11 117
-4.5697374 -4.7735562 -0.58425826 255 11 117
-4.5383148 -4.7781382 -0.57331485 255 11 117
-0.17293565 -4.7633877 -0.58290184 255 11 117
0.98864979 -4.7730312 -0.57545567 255 11 117
1.0207322 -4.7644925 -0.5759483 255 11 117
1.0735277 -4.7729568 -0.57718021 255 11 117
1.1262585 -4.7837696 -0.5755161 255 11 117
1.1746798 -4.7924776 -0.57839715 255 11 117
1.2214947 -4.7959113 -0.58314538 255 11 117
1.2577639 -4.797318 -0.59091258 255 11 117
-4.5554571 -4.7491975 -0.56520253 255 11 117
-4.5283461 -4.7345357 -0.5710727 255 11 117
0.98520958 -4.7466049 -0.57857966 255 11 117
1.0195282 -4.7466717 -0.55177188 255 11 117
-4.512548 -4.6971579 -0.58268589 255 11 117
-0.1618235 -4.0564046 -0.57151675 255 11 117
-0.16423352 -4.0316114 -0.57061446 255 11 117
-0.15938638 -3.9585104 -0.56663638 255 11 117
-0.15799461 -3.8571329 -0.58571154 255 11 117
-0.15577626 -3.8206949 -0.57249677 255 11 117
-0.15484457 -3.7832983 -0.56513298 255 11 117
-0.15262085 -3.7318115 -0.59821868 255 11 117
-0.15269314 -3.6632557 -0.55097449 255 11 117
-0.15127315 -3.6084013 -0.56572688 255 11 117
-0.14991288 -3.6232128 -0.57353282 255 11 117
-0.87347406 -3.5550132 -0.55838907 255 11 117
-0.15083082 -3.5550411 -0.57769293 255 11 117
-0.14888215 -3.5728722 -0.57169282 255 11 117
-0.86420625 -3.5165517 -0.57464844 255 11 117
-0.83943188 -3.5101144 -0.57020491 255 11 117
-0.15182205 -3.5137091 -0.57098651 255 11 117
-0.14832598 -3.5221219 -0.57955438 255 11 117
-0.85838228 -3.482708 -0.57766497 255 11 117
-0.82827389 -3.476301 -0.57554686 255 11 117
-0.79496431 -3.4526172 -0.57229531 255 11 117
-0.40543792 -3.4531834 -0.55402529 255 11 117
-0.37166086 -3.4529181 -0.57016587 255 11 117
-0.3208881 -3.458298 -0.57001555 255 11 117
-0.27354419 -3.4631302 -0.57259405 255 11 117
-0.22371197 -3.4674733 -0.57495779 255 11 117
-0.17552574 -3.4765611 -0.57495815 255 11 117
-0.14315647 -3.4762011 -0.58335155 255 11 117
-0.85806543 -3.4360309 -0.56196147 255 11 117
-0.80896097 -3.4354188 -0.57982117 255 11 117
-0.782013 -3.4177501 -0.57478929 255 11 117
-0.74376965 -3.4015479 -0.56976843 255 11 117
-0.65479273 -3.4006407 -0.58568066 255 11 117
-0.6139155 -3.4052308 -0.56884581 255 11 117
-0.574866 -3.4094317 -0.574444 255 11 117
-0.52464157 -3.4163599 -0.57535422 255 11 117
-0.47493306 -3.4260547 -0.57401365 255 11 117
-0.4251878 -3.4371908 -0.57533801 255 11 117
-0.3768093 -3.4394057 -0.57449347 255 11 117
-0.3256751 -3.4416227 -0.58641201 255 11 117
-0.28939766 -3.4458611 -0.58320725 255 11 117
-0.2378708 -3.4487214 -0.55181545 255 11 117
-0.14223383 -3.4408505 -0.57893479 255 11 117
-0.76428449 -3.3893569 -0.57619119 255 11 117
-0.72497624 -3.3783174 -0.57569557 255 11 117
-0.6738801 -3.3772314 -0.57534903 255 11 117
-0.62892807 -3.3917401 -0.57719374 255 11 117
-0.58305573 -3.395344 -0.58560723 255 11 117
-0.54760027 -3.3986537 -0.59566528 255 11 117
0.74896449 -3.1082938 -0.5624212 255 11 117
0.75416648 -3.1062629 -0.5616883 255 11 117
0.74546242 -3.0845661 -0.56058902 255 11 117
0.76122916 -3.0753169 -0.56191802 255 11 117
0.81875926 -3.0602984 -0.59275383 255 11 117
0.74058068 -3.0272307 -0.5581246 255 11 117
0.77283353 -3.0273418 -0.56339675 255 11 117
0.8313663 -3.0306983 -0.59094119 255 11 117
0.85643095 -3.0146513 -0.5948531 255 11 117
0.73742396 -2.9907074 -0.55539638 255 11 117
0.78239691 -2.9769752 -0.55991042 255 11 117
0.83303964 -2.9759839 -0.58195966 255 11 117
0.85379684 -2.9667578 -0.59114426 255 11 117
0.73423022 -2.927918 -0.55188835 255 11 117
0.78992039 -2.9316216 -0.5560559 255 11 117
0.82073796 -2.9232852 -0.5655784 255 11 117
0.7979387 -2.8873968 -0.55185527 255 11 117
0.82002419 -2.8751345 -0.55842316 255 11 117
0.8296265 -2.8305769 -0.55615288 255 11 117
-1.6086988 -2.6565065 -0.57839125 255 11 117
-1.597258 -2.6521218 -0.57528311 255 11 117
-1.650213 -2.6347094 -0.5748027 255 11 117
-1.6261864 -2.6322668 -0.58192366 255 11 117
-1.5890925 -2.6140237 -0.58028919 255 11 117
-0.5317806 -2.6134644 -0.59948492 255 11 117
-1.6071767 -2.5867808 -0.57604593 255 11 117
-1.5899539 -2.5903316 -0.58209389 255 11 117
-0.57039511 -2.5660024 -0.59206003 255 11 117
-0.52309579 -2.5651078 -0.58929741 255 11 117
-0.30994233 -2.5719121 -0.59126538 255 11 117
-0.26666322 -2.5813191 -0.59441996 255 11 117
-0.24369106 -2.5665278 -0.59821939 255 11 117
-1.5792701 -2.5229406 -0.58471417 255 11 117
-1.5410702 -2.5493741 -0.59726751 255 11 117
-0.61570388 -2.5169952 -0.59404832 255 11 117
-0.57384342 -2.5186429 -0.58614826 255 11 117
-0.52637625 -2.5213518 -0.57904893 255 11 117
-0.48678482 -2.5142841 -0.58901048 255 11 117
-0.31439632 -2.5145068 -0.59035218 255 11 117
-0.26799402 -2.5217867 -0.58719689 255 11 117
-0.23704796 -2.525723 -0.59075528 255 11 117
-0.60629088 -2.4815516 -0.59118515 255 11 117
-0.57358605 -2.4708471 -0.57779837 255 11 117
-0.51960671 -2.4706233 -0.57564503 255 11 117
-0.47715214 -2.4648008 -0.58593708 255 11 117
-0.425666 -2.4635637 -0.59562719 255 11 117
-0.37805939 -2.471174 -0.59797269 255 11 117
-0.32105616 -2.4694476 -0.58473104 255 11 117
-0.27653253 -2.4719183 -0.57949436 255 11 117
-0.23812547 -2.4676249 -0.57720989 255 11 117
-0.61030042 -2.4269447 -0.59425455 255 11 117
-0.57831734 -2.4229817 -0.57953727 255 11 117
-0.51991785 -2.4233732 -0.56338859 255 11 117
-0.47592661 -2.4262347 -0.57998055 255 11 117
-0.4298256 -2.4243751 -0.59035528 255 11 117
-0.37760985 -2.4237227 -0.5877192 255 11 117
-0.32449794 -2.4170852 -0.58311242 255 11 117
-0.2704978 -2.4273233 -0.5701834 255 11 117
-0.2345494 -2.4202008 -0.56568295 255 11 117
-0.65379828 -2.3588374 -0.59898788 255 11 117
-0.61843479 -2.363991 -0.59186995 255 11 117
-0.57813305 -2.3696735 -0.58230209 255 11 117
-0.53769183 -2.3739936 -0.5573681 255 11 117
-0.46577746 -2.3694174 -0.57305402 255 11 117
-0.43757573 -2.3673561 -0.5822711 255 11 117
-0.3757039 -2.3692365 -0.57914823 255 11 117
-0.32422924 -2.3748195 -0.57982993 255 11 117
-0.26370743 -2.3808718 -0.56443852 255 11 117
-0.23240899 -2.3769236 -0.56854618 255 11 117
-0.71709561 -2.3186586 -0.59776628 255 11 117
-0.66337907 -2.3292136 -0.59771419 255 11 117
-0.61732233 -2.331687 -0.593615 255 11 117
-0.5742951 -2.3232257 -0.58022434 255 11 117
-0.52544701 -2.315716 -0.55780274 255 11 117
-0.47093409 -2.3198535 -0.56606853 255 11 117
-0.43577784 -2.3255234 -0.58680427 255 11 117
-0.37631431 -2.3240223 -0.57043928 255 11 117
-0.32507011 -2.3211086 -0.56569546 255 11 117
-0.28437155 -2.3165653 -0.55976993 255 11 117
-0.22855565 -2.3253546 -0.56908822 255 11 117
-0.10710243 -2.3064885 -0.59657186 255 11 117
-0.66693753 -2.267314 -0.5887208 255 11 117
-0.61446047 -2.2807589 -0.59072411 255 11 117
-0.57270318 -2.2773733 -0.57861954 255 11 117
-0.52112651 -2.2755561 -0.56328189 255 11 117
-0.4748598 -2.2743263 -0.57000381 255 11 117
-0.43379 -2.2745717 -0.5831275 255 11 117
-0.38384992 -2.2710781 -0.57813597 255 11 117
-0.32702446 -2.2779038 -0.55590326 255 11 117
-0.28165621 -2.2735963 -0.55586129 255 11 117
-0.22447562 -2.2735555 -0.56715739 255 11 117
-0.12621854 -2.2587576 -0.59388095 255 11 117
-0.7185486 -2.2202141 -0.59345472 255 11 117
-0.66845399 -2.2279756 -0.58522832 255 11 117
-0.61413252 -2.2204418 -0.58950973 255 11 117
-0.57716882 -2.2195508 -0.57988137 255 11 117
-0.5216018 -2.2216232 -0.57175803 255 11 117
-0.47576478 -2.226516 -0.57732272 255 11 117
-0.42774177 -2.2197011 -0.5849508 255 11 117
-0.3881388 -2.2132792 -0.58231765 255 11 117
-0.31110379 -2.2422557 -0.55213857 255 11 117
-0.28333306 -2.2458882 -0.55226803 255 11 117
-0.21769086 -2.2184362 -0.56949288 255 11 117
-0.18524991 -2.2119963 -0.58036494 255 11 117
-0.11757449 -2.2233102 -0.59095383 255 11 117
-0.093785875 -2.2129073 -0.59583819 255 11 117
-0.70730954 -2.1655664 -0.59227443 255 11 117
-0.66607189 -2.1745207 -0.58257812 255 11 117
-0.61950064 -2.1734118 -0.58725864 255 11 117
-0.56835693 -2.1719007 -0.58307862 255 11 117
-0.52826577 -2.1754484 -0.57694 255 11 117
-0.47482926 -2.1777513 -0.5808394 255 11 117
-0.4218989 -2.1780019 -0.58582753 255 11 117
-0.36981621 -2.1754477 -0.57780325 255 11 117
-0.32606351 -2.1736805 -0.57462293 255 11 117
-0.27526098 -2.1789663 -0.57549989 255 11 117
-0.22938859 -2.185142 -0.57520139 255 11 117
-0.18170197 -2.1785398 -0.58775854 255 11 117
-0.11387214 -2.1688192 -0.58771598 255 11 117
-0.087298706 -2.1644709 -0.58548152 255 11 117
-0.70641059 -2.1330132 -0.59464854 255 11 117
-0.67396498 -2.1323066 -0.57894164 255 11 117
-0.62672859 -2.1261346 -0.58222586 255 11 117
-0.56531155 -2.1296301 -0.58196467 255 11 117
-0.52452236 -2.1248441 -0.57384562 255 11 117
-0.47708333 -2.126261 -0.5787558 255 11 117
-0.42462394 -2.1234205 -0.58106774 255 11 117
-0.37259465 -2.1290121 -0.57712364 255 11 117
-0.32605463 -2.1277974 -0.57558793 255 11 117
-0.27607828 -2.1305315 -0.57630479 255 11 117
-0.22450513 -2.1152442 -0.57165414 255 11 117
-0.18427469 -2.1119077 -0.58283871 255 11 117
-0.11251237 -2.1344967 -0.58131742 255 11 117
-0.082221277 -2.1231411 -0.58508551 255 11 117
-0.039832521 -2.1109211 -0.59332758 255 11 117
-0.67576319 -2.0774562 -0.58924347 255 11 117
-0.62757391 -2.0690191 -0.57555324 255 11 117
-0.5578323 -2.0840778 -0.58343166 255 11 117
-0.52371931 -2.0800848 -0.57355368 255 11 117
-0.4774811 -2.0757124 -0.57572925 255 11 117
-0.42456967 -2.0747223 -0.57900888 255 11 117
-0.37517744 -2.0716815 -0.57467639 255 11 117
-0.32227388 -2.0738821 -0.57186776 255 11 117
-0.27491349 -2.0744815 -0.57338029 255 11 117
-0.22453697 -2.0767405 -0.57155824 255 11 117
-0.1851299 -2.0710399 -0.5799731 255 11 117
-0.11099109 -2.0611331 -0.58591801 255 11 117
-0.076084718 -2.0698211 -0.58838814 255 11 117
-0.038661774 -2.0671525 -0.59730059 255 11 117
-0.6702897 -2.0250616 -0.59337163 255 11 117
-0.62140661 -2.0230284 -0.57880235 255 11 117
-0.57224518 -2.0147798 -0.59267622 255 11 117
-0.52625173 -2.0219922 -0.58333224 255 11 117
-0.46963236 -2.0240958 -0.57982558 255 11 117
-0.42493808 -2.0233572 -0.58004111 255 11 117
-0.37349308 -2.0237138 -0.57709801 255 11 117
-0.32506394 -2.0259695 -0.58412385 255 11 117
-0.27647561 -2.0262218 -0.58471608 255 11 117
-0.22276086 -2.0276005 -0.58112514 255 11 117
-0.17660888 -2.021318 -0.58530849 255 11 117
-0.12439096 -2.0221722 -0.59511513 255 11 117
-0.074539267 -2.0217123 -0.58574504 255 11 117
-0.040450357 -2.0261443 -0.59360486 255 11 117
-0.66187084 -1.9755992 -0.5933302 255 11 117
-0.62007314 -1.9735501 -0.58865207 255 11 117
-0.5745917 -1.9740779 -0.59162021 255 11 117
-0.52548474 -1.9769732 -0.59117359 255 11 117
-0.47385144 -1.9760388 -0.58656102 255 11 117
-0.42449525 -1.9752784 -0.58274633 255 11 117
-0.37549838 -1.9727038 -0.58720732 255 11 117
-0.32785562 -1.9721866 -0.58766198 255 11 117
-0.27451774 -1.9743252 -0.58586037 255 11 117
-0.22767964 -1.975679 -0.58814329 255 11 117
-0.17615038 -1.9758065 -0.58148634 255 11 117
-0.12188251 -1.9784681 -0.58665806 255 11 117
-0.073185936 -1.9805992 -0.58084732 255 11 117
-0.040961087 -1.9768798 -0.57988071 255 11 117
-0.61385429 -1.9275402 -0.59049422 255 11 117
-0.57400626 -1.9258858 -0.58299696 255 11 117
-0.52503067 -1.9241356 -0.58402097 255 11 117
-0.47527814 -1.9245181 -0.58292645 255 11 117
-0.4272503 -1.9244131 -0.58162385 255 11 117
-0.37496835 -1.9280503 -0.58165371 255 11 117
-0.33213967 -1.9286275 -0.5746364 255 11 117
-0.27671567 -1.9289782 -0.57745302 255 11 117
-0.2229294 -1.9288318 -0.56831926 255 11 117
-0.18355919 -1.9316779 -0.56863958 255 11 117
-0.1244526 -1.9308228 -0.57106835 255 11 117
-0.070391133 -1.9376447 -0.57163906 255 11 117
-0.034612991 -1.922256 -0.57614303 255 11 117
0.38520059 -1.9083614 -0.59289134 255 11 117
0.40739888 -1.9030008 -0.59676689 255 11 117
-1.1944962 -1.8884926 -0.58868343 255 11 117
-0.60817385 -1.8798263 -0.5811879 255 11 117
-0.57467324 -1.880388 -0.57181954 255 11 117
-0.51933098 -1.8796979 -0.57394868 255 11 117
-0.47351214 -1.8808709 -0.57946104 255 11 117
-0.42917091 -1.8800552 -0.57760644 255 11 117
-0.37521419 -1.8809468 -0.57519233 255 11 117
-0.3312161 -1.8831505 -0.56975871 255 11 117
-0.27189583 -1.8813825 -0.57603544 255 11 117
-0.2280255 -1.8777672 -0.57303113 255 11 117
-0.18959117 -1.8751721 -0.57251775 255 11 117
-0.10452521 -1.887189 -0.55104506 255 11 117
-0.08049807 -1.8884215 -0.57248574 255 11 117
-0.032152418 -1.877582 -0.57746816 255 11 117
0.37878144 -1.8717315 -0.58917558 255 11 117
0.41565442 -1.8677864 -0.59440649 255 11 117
-0.6015358 -1.8326724 -0.57879496 255 11 117
-0.5798617 -1.8311139 -0.56214517 255 11 117
-0.52298933 -1.8379418 -0.57218415 255 11 117
-0.46668032 -1.8329495 -0.57997769 255 11 117
-0.42938477 -1.8396621 -0.57049549 255 11 117
-0.37745529 -1.8401952 -0.56541449 255 11 117
-0.32644945 -1.8386484 -0.55650067 255 11 117
-0.26182973 -1.831488 -0.59397489 255 11 117
-0.22265992 -1.819939 -0.59044677 255 11 117
-0.18854767 -1.8153993 -0.59206033 255 11 117
-0.031666078 -1.8201278 -0.56128991 255 11 117
0.34850079 -1.8235108 -0.56523949 255 11 117
0.37816739 -1.8245026 -0.57812512 255 11 117
0.42212355 -1.8232 -0.58890468 255 11 117
0.45752868 -1.8179392 -0.59301049 255 11 117
-0.5791558 -1.7651409 -0.57933384 255 11 117
-0.25499278 -1.7622355 -0.58512211 255 11 117
-0.21906871 -1.7729481 -0.58748662 255 11 117
-0.1886176 -1.7794309 -0.58506268 255 11 117
-0.033128615 -1.785233 -0.57628191 255 11 117
0.34609139 -1.7755916 -0.55930942 255 11 117
0.37428603 -1.7769438 -0.5645166 255 11 117
0.42078671 -1.7767167 -0.57708222 255 11 117
0.46074092 -1.7767607 -0.59493268 255 11 117
-0.57210988 -1.7350531 -0.58266723 255 11 117
-0.26283485 -1.7163699 -0.59170783 255 11 117
-0.22626239 -1.7197605 -0.58260447 255 11 117
-0.17430303 -1.7255266 -0.58139724 255 11 117
0.34272149 -1.7433274 -0.55271769 255 11 117
0.37982571 -1.733974 -0.55737191 255 11 117
0.42442083 -1.7258226 -0.5645299 255 11 117
0.46399072 -1.7316929 -0.58970368 255 11 117
-0.55697435 -1.680948 -0.55757904 255 11 117
-0.3030369 -1.6642853 -0.59407264 255 11 117
-0.26460698 -1.6710823 -0.58499855 255 11 117
-0.2307266 -1.6723019 -0.5788638 255 11 117
-0.17213418 -1.6756076 -0.5687452 255 11 117
0.39991891 -1.688017 -0.55679035 255 11 117
0.43234962 -1.6800005 -0.56341022 255 11 117
0.45764428 -1.6870555 -0.58091986 255 11 117
-0.41408116 -1.6218218 -0.59457535 255 11 117
-0.38265342 -1.6152805 -0.59116781 255 11 117
-0.32797724 -1.6228733 -0.59527886 255 11 117
-0.26597443 -1.622784 -0.58728331 255 11 117
-0.23604362 -1.6280338 -0.57379597 255 11 117
-0.17849858 -1.6196358 -0.56438422 255 11 117
-0.10759006 -1.6028547 -0.59753585 255 11 117
-0.062077198 -1.6166737 -0.59596157 255 11 117
-0.023506898 -1.6180069 -0.59864676 255 11 117
0.29936749 -1.6098719 -0.58840311 255 11 117
0.31373435 -1.636435 -0.59709078 255 11 117
0.43632773 -1.6134794 -0.55942833 255 11 117
0.49425459 -1.6155651 -0.58628154 255 11 117
0.52621335 -1.6181418 -0.5844155 255 11 117
0.55066729 -1.6222428 -0.59352076 255 11 117
-0.41527218 -1.5712004 -0.59376591 255 11 117
-0.37924302 -1.5681152 -0.59230137 255 11 117
-0.32468551 -1.5739964 -0.58816892 255 11 117
-0.26994458 -1.5719812 -0.58188617 255 11 117
-0.23795812 -1.5792202 -0.5709728 255 11 117
-0.17431872 -1.5675224 -0.58746141 255 11 117
-0.11791474 -1.5731697 -0.59199679 255 11 117
-0.068469971 -1.5728475 -0.59379047 255 11 117
-0.030768624 -1.5739648 -0.59225333 255 11 117
0.023720831 -1.572382 -0.59296244 255 11 117
0.073107257 -1.5646877 -0.59619242 255 11 117
0.11681385 -1.5704987 -0.59306735 255 11 117
0.15827203 -1.5652069 -0.59457952 255 11 117
0.4464193 -1.5575967 -0.59978437 255 11 117
0.46658981 -1.5732543 -0.59084308 255 11 117
0.52936542 -1.5704676 -0.58340806 255 11 117
-0.41659376 -1.5256294 -0.59176934 255 11 117
-0.37421525 -1.5253764 -0.588893 255 11 117
-0.31814659 -1.5201713 -0.58713692 255 11 117
-0.27546975 -1.5261776 -0.58166802 255 11 117
-0.22950913 -1.5279312 -0.56676888 255 11 117
-0.17526171 -1.5265505 -0.58726037 255 11 117
-0.12383911 -1.5191457 -0.59229535 255 11 117
-0.069735661 -1.530158 -0.58410943 255 11 117
-0.016014976 -1.5285895 -0.58717018 255 11 117
0.027542714 -1.520177 -0.59495765 255 11 117
0.072986104 -1.5235014 -0.59087473 255 11 117
0.13260432 -1.5289191 -0.59052593 255 11 117
0.16047446 -1.5210514 -0.5942564 255 11 117
0.37347949 -1.5042107 -0.58978438 255 11 117
0.42889029 -1.5071529 -0.57338017 255 11 117
0.45927191 -1.5225697 -0.58785444 255 11 117
0.51996058 -1.5364389 -0.57844979 255 11 117
-0.41758734 -1.4730871 -0.59250575 255 11 117
-0.37181243 -1.4709338 -0.58857322 255 11 117
-0.32427451 -1.473218 -0.58375144 255 11 117
-0.27927527 -1.4726242 -0.58049345 255 11 117
-0.2326574 -1.4758706 -0.5668003 255 11 117
-0.17343278 -1.47908 -0.57249451 255 11 117
-0.1207576 -1.4701726 -0.59068388 255 11 117
-0.077279195 -1.4687679 -0.59309322 255 11 117
-0.023101542 -1.4688962 -0.59008104 255 11 117
0.023311524 -1.473922 -0.59180009 255 11 117
0.071998976 -1.4790694 -0.58531916 255 11 117
0.12891199 -1.4737256 -0.57644331 255 11 117
0.16235672 -1.4835229 -0.57858241 255 11 117
0.24155003 -1.4586943 -0.59632987 255 11 117
0.2714031 -1.4607481 -0.59226865 255 11 117
0.33096457 -1.4698886 -0.58802074 255 11 117
0.3685838 -1.4641515 -0.58950317 255 11 117
0.43458131 -1.466509 -0.57701916 255 11 117
0.45365137 -1.4873505 -0.58790773 255 11 117
0.51256531 -1.4731432 -0.55749774 255 11 117
-0.45509353 -1.4381237 -0.59821373 255 11 117
-0.41494554 -1.42825 -0.5898329 255 11 117
-0.37052771 -1.426031 -0.58497167 255 11 117
-0.32518336 -1.4255373 -0.57480884 255 11 117
-0.27570814 -1.4231949 -0.57560366 255 11 117
-0.22969885 -1.4220293 -0.57866997 255 11 117
-0.17458387 -1.4187944 -0.58316201 255 11 117
-0.11904623 -1.4241428 -0.58617687 255 11 117
-0.074265666 -1.4210641 -0.58785665 255 11 117
-0.023261435 -1.4196596 -0.59179509 255 11 117
0.017509015 -1.4230286 -0.58750707 255 11 117
0.078357182 -1.4187245 -0.5829336 255 11 117
0.12268735 -1.4169639 -0.58736199 255 11 117
0.16530649 -1.4203087 -0.57950562 255 11 117
0.2283133 -1.4113868 -0.59141976 255 11 117
0.26538789 -1.4306393 -0.582856 255 11 117
0.33325338 -1.4229378 -0.57394582 255 11 117
0.36537951 -1.4265187 -0.57543403 255 11 117
0.42314583 -1.4283712 -0.58051026 255 11 117
-0.45018488 -1.3920903 -0.59753859 255 11 117
-0.42042053 -1.3791465 -0.58326793 255 11 117
-0.36985376 -1.3764964 -0.57881582 255 11 117
-0.32898962 -1.3779496 -0.5728665 255 11 117
-0.2736122 -1.3798614 -0.57233405 255 11 117
-0.22632711 -1.374728 -0.58117098 255 11 117
-0.17526719 -1.3717601 -0.57338721 255 11 117
-0.12166658 -1.372566 -0.57967192 255 11 117
-0.071790829 -1.3755267 -0.58435339 255 11 117
-0.024218574 -1.3724051 -0.58616471 255 11 117
0.015722806 -1.3722119 -0.58176565 255 11 117
0.072927788 -1.3747443 -0.57805705 255 11 117
0.1230104 -1.3735858 -0.57473111 255 11 117
0.16571656 -1.3701422 -0.57770807 255 11 117
0.221267 -1.3776698 -0.58143485 255 11 117
0.26034692 -1.3685502 -0.57641232 255 11 117
0.33613983 -1.381513 -0.55752569 255 11 117
0.37776554 -1.3718249 -0.5639084 255 11 117
0.40870252 -1.3735582 -0.57637537 255 11 117
-0.45817971 -1.3402442 -0.5923928 255 11 117
-0.42101684 -1.3192581 -0.57519501 255 11 117
-0.36986133 -1.3234867 -0.57460499 255 11 117
-0.32715306 -1.3213799 -0.57777393 255 11 117
-0.27309656 -1.321797 -0.58295375 255 11 117
-0.22177029 -1.3242416 -0.57554096 255 11 117
-0.17489785 -1.3286935 -0.56567121 255 11 117
-0.12474393 -1.3257949 -0.56898957 255 11 117
-0.070775367 -1.3248185 -0.57961971 255 11 117
-0.024355175 -1.3232219 -0.58116454 255 11 117
0.022546284 -1.320962 -0.58038604 255 11 117
0.072483614 -1.3237733 -0.56782013 255 11 117
0.12784684 -1.3272245 -0.56733286 255 11 117
0.16976623 -1.3235689 -0.57420623 255 11 117
0.21894722 -1.3244245 -0.58583146 255 11 117
0.26978102 -1.3226945 -0.57363921 255 11 117
0.33410245 -1.3129758 -0.57726216 255 11 117
0.37669954 -1.3209889 -0.57548064 255 11 117
0.40170613 -1.339372 -0.57395101 255 11 117
-0.45478225 -1.2841847 -0.58572769 255 11 117
-0.41234347 -1.2753568 -0.57247329 255 11 117
-0.36907965 -1.2737424 -0.57338709 255 11 117
-0.32296887 -1.273349 -0.57131702 255 11 117
-0.27846304 -1.2702469 -0.57946765 255 11 117
-0.22157376 -1.2749848 -0.57514548 255 11 117
-0.18331096 -1.2776011 -0.57184601 255 11 117
-0.12536323 -1.2748668 -0.57294267 255 11 117
-0.070742123 -1.2736546 -0.57391042 255 11 117
-0.027044656 -1.2737478 -0.57464308 255 11 117
0.022289479 -1.274055 -0.57634282 255 11 117
0.069832593 -1.275488 -0.57149243 255 11 117
0.12956448 -1.2715917 -0.57068592 255 11 117
0.17585607 -1.274516 -0.5765903 255 11 117
0.21516034 -1.2732489 -0.57809484 255 11 117
0.28163162 -1.267785 -0.56479216 255 11 117
0.32793325 -1.2636689 -0.57798475 255 11 117
0.36743319 -1.2730696 -0.57551122 255 11 117
0.47114053 -1.2731199 -0.58206964 255 11 117
-0.41522452 -1.2270125 -0.58222306 255 11 117
-0.37694228 -1.2257446 -0.56809163 255 11 117
-0.32087615 -1.2252471 -0.56717235 255 11 117
-0.27949724 -1.2261182 -0.5690732 255 11 117
-0.22699051 -1.2243757 -0.57278204 255 11 117
-0.1804696 -1.2246435 -0.57394218 255 11 117
-0.12067508 -1.2262099 -0.56721365 255 11 117
-0.070238642 -1.2264028 -0.56867826 255 11 117
-0.026532948 -1.2263414 -0.56934536 255 11 117
0.023268092 -1.2263662 -0.57442218 255 11 117
0.078776412 -1.221403 -0.57337105 255 11 117
0.12599072 -1.2275885 -0.57335955 255 11 117
0.18122967 -1.2246579 -0.57549429 255 11 117
0.22136651 -1.2271262 -0.57305998 255 11 117
0.28433943 -1.2251251 -0.56316191 255 11 117
0.31795856 -1.2318343 -0.57133383 255 11 117
0.37563467 -1.2273808 -0.57403421 255 11 117
0.45216259 -1.2349408 -0.56298792 255 11 117
-0.41486251 -1.1785145 -0.57194084 255 11 117
-0.37456119 -1.1792834 -0.56432211 255 11 117
-0.32178396 -1.1832213 -0.56261003 255 11 117
-0.27858323 -1.1840253 -0.56109273 255 11 117
-0.22759341 -1.1814212 -0.56442183 255 11 117
-0.1767966 -1.1784142 -0.56837678 255 11 117
-0.12574594 -1.17749 -0.57003409 255 11 117
-0.068509519 -1.1800443 -0.56335044 255 11 117
-0.025120826 -1.1814184 -0.56399912 255 11 117
0.024152085 -1.1800971 -0.56934905 255 11 117
0.080551915 -1.1766653 -0.56914961 255 11 117
0.12473037 -1.1745107 -0.57884967 255 11 117
0.18057762 -1.1765621 -0.57467592 255 11 117
0.24071176 -1.1738193 -0.56706846 255 11 117
0.27387658 -1.1691674 -0.56956804 255 11 117
0.32122132 -1.1733332 -0.57320493 255 11 117
0.36255392 -1.182377 -0.57869333 255 11 117
0.41536883 -1.1708808 -0.57017547 255 11 117
-0.60419589 -1.1293586 -0.59796524 255 11 117
-0.58650434 -1.1025481 -0.58830947 255 11 117
-0.40868667 -1.1449206 -0.55265599 255 11 117
-0.37202933 -1.1426531 -0.55834168 255 11 117
-0.32516539 -1.1330253 -0.55631214 255 11 117
-0.27223939 -1.1420991 -0.56007445 255 11 117
-0.2172379 -1.1403511 -0.55669487 255 11 117
-0.17209901 -1.1385207 -0.55817622 255 11 117
-0.13228729 -1.1398194 -0.55998242 255 11 117
-0.075338788 -1.1377507 -0.55694473 255 11 117
-0.019972673 -1.1393017 -0.55751193 255 11 117
0.024544468 -1.1338655 -0.55787033 255 11 117
0.078333035 -1.1256406 -0.57515693 255 11 117
0.12409752 -1.1237637 -0.5867433 255 11 117
0.1743837 -1.124449 -0.57763624 255 11 117
0.23570289 -1.1239985 -0.56731057 255 11 117
0.27432543 -1.1279585 -0.5729773 255 11 117
0.32641199 -1.1184032 -0.57550931 255 11 117
0.3735576 -1.1187797 -0.56820744 255 11 117
0.40335256 -1.1411743 -0.56403005 255 11 117
-0.56995445 -1.0631051 -0.55663621 255 11 117
0.046831165 -1.0891006 -0.55374551 255 11 117
0.082800776 -1.0803573 -0.56891692 255 11 117
0.12942211 -1.0762013 -0.57857335 255 11 117
0.17235839 -1.0758306 -0.5761289 255 11 117
0.23207904 -1.0785007 -0.57141656 255 11 117
0.2756553 -1.0737659 -0.56987113 255 11 117
0.3167201 -1.0847853 -0.57670331 255 11 117
0.3674705 -1.0900224 -0.55962944 255 11 117
0.086085863 -1.0400894 -0.5571456 255 11 117
0.12946291 -1.0187312 -0.58025497 255 11 117
0.16927256 -1.0205746 -0.57691449 255 11 117
0.23029341 -1.0261903 -0.57048404 255 11 117
0.27089769 -1.031569 -0.5655998 255 11 117
0.31505275 -1.0268123 -0.57507575 255 11 117
0.36645502 -1.0481182 -0.55933076 255 11 117
0.096638113 -0.97564888 -0.57027197 255 11 117
0.12039886 -0.97420245 -0.57799864 255 11 117
0.17055573 -0.9747135 -0.57548493 255 11 117
0.22432025 -0.97456032 -0.57716393 255 11 117
0.27164871 -0.99227601 -0.5566622 255 11 117
0.31481835 -0.99668223 -0.57208592 255 11 117
-0.30842525 -0.90411884 -0.59247535 255 11 117
0.088899001 -0.92414653 -0.57655144 255 11 117
0.12371571 -0.92529929 -0.57509702 255 11 117
0.17161772 -0.92669928 -0.57657224 255 11 117
0.21780697 -0.93099898 -0.57388681 255 11 117
0.27824739 -0.90531367 -0.59390646 255 11 117
0.30827928 -0.90682691 -0.59231293 255 11 117
0.37866125 -0.90629333 -0.58431983 255 11 117
-0.31579137 -0.86739028 -0.58978456 255 11 117
-0.29482192 -0.85874403 -0.56544447 255 11 117
0.086088724 -0.8719399 -0.58000427 255 11 117
0.12616892 -0.87643355 -0.57613969 255 11 117
0.16843677 -0.87676764 -0.57706255 255 11 117
0.20902792 -0.87692022 -0.57797587 255 11 117
0.28298253 -0.86655629 -0.57792634 255 11 117
0.31560895 -0.8774603 -0.58502382 255 11 117
-0.31719121 -0.83386087 -0.56730014 255 11 117
-0.29438174 -0.83597296 -0.56674618 255 11 117
0.082690775 -0.82483768 -0.57291007 255 11 117
0.12330609 -0.82738632 -0.57584971 255 11 117
0.1754289 -0.82979786 -0.57220143 255 11 117
0.23075894 -0.82446492 -0.57273859 255 11 117
0.27962321 -0.82581025 -0.57140952 255 11 117
0.33273503 -0.82788485 -0.57047909 255 11 117
0.080067709 -0.77818853 -0.56911111 255 11 117
0.11939252 -0.77489305 -0.57254708 255 11 117
0.17490833 -0.77357787 -0.57576609 255 11 117
0.22441809 -0.77239871 -0.57642728 255 11 117
0.27388781 -0.77214825 -0.58139938 255 11 117
0.31747687 -0.76903081 -0.57885468 255 11 117
0.087742776 -0.73001218 -0.56539333 255 11 117
0.12564085 -0.72718084 -0.57211518 255 11 117
0.17006183 -0.72224325 -0.57618302 255 11 117
0.22330977 -0.72136831 -0.59064561 255 11 117
0.27368593 -0.72149575 -0.57367432 255 11 117
0.31753641 -0.73123753 -0.5810774 255 11 117
0.091205165 -0.68410236 -0.56074482 255 11 117
0.13316476 -0.67426383 -0.56802976 255 11 117
0.16833664 -0.67745453 -0.56751406 255 11 117
0.21801797 -0.67642576 -0.57603252 255 11 117
0.27030295 -0.68469805 -0.56967199 255 11 117
-0.031841725 -0.61288929 -0.59190154 255 11 117
0.0071726441 -0.60803622 -0.57906991 255 11 117
0.051822618 -0.62017912 -0.58825839 255 11 117
0.12823471 -0.63978118 -0.55874562 255 11 117
0.17226109 -0.63327217 -0.56286782 255 11 117
0.22401993 -0.62530047 -0.56143564 255 11 117
0.26858142 -0.61807901 -0.56262565 255 11 117
-0.16498345 -0.55306482 -0.59544134 255 11 117
-0.12337127 -0.55974519 -0.57818764 255 11 117
-0.076069787 -0.55862403 -0.57662141 255 11 117
-0.035232447 -0.57420635 -0.57577187 255 11 117
0.022848735 -0.57219374 -0.57992566 255 11 117
0.078407645 -0.57441419 -0.5792439 255 11 117
0.13991536 -0.573847 -0.56206304 255 11 117
0.16785353 -0.56711274 -0.57622039 255 11 117
0.24285485 -0.56411958 -0.57056004 255 11 117
0.26637203 -0.5647347 -0.57431656 255 11 117
-0.30769354 -0.5151521 -0.58846796 255 11 117
-0.26619706 -0.51530421 -0.5717209 255 11 117
-0.21427861 -0.51464641 -0.57986397 255 11 117
-0.17303823 -0.51159608 -0.58453405 255 11 117
-0.12491792 -0.52643073 -0.57021272 255 11 117
-0.079865798 -0.52914 -0.56506485 255 11 117
-0.020896893 -0.51639187 -0.5758301 255 11 117
0.029162668 -0.52901733 -0.57699424 255 11 117
0.073426999 -0.52996606 -0.57339919 255 11 117
0.13647041 -0.5263328 -0.572797 255 11 117
0.17066951 -0.52735972 -0.57456815 255 11 117
0.23519255 -0.52605534 -0.57106429 255 11 117
0.26831323 -0.52809894 -0.57673943 255 11 117
-0.46985862 -0.47342968 -0.57581574 255 11 117
-0.4181093 -0.47727633 -0.5703215 255 11 117
-0.37113404 -0.4831945 -0.56129837 255 11 117
-0.32985416 -0.4758631 -0.55998498 255 11 117
-0.26727366 -0.4727194 -0.56008446 255 11 117
-0.22002193 -0.48256692 -0.56824636 255 11 117
-0.17481744 -0.4895747 -0.56379592 255 11 117
-0.13203299 -0.49228269 -0.56109411 255 11 117
-0.078241467 -0.4903248 -0.56707925 255 11 117
-0.038634755 -0.49337307 -0.56203866 255 11 117
0.01096808 -0.49640411 -0.55225492 255 11 117
0.14414562 -0.48527163 -0.5633601 255 11 117
0.17904209 -0.47117195 -0.57246077 255 11 117
0.23030828 -0.47596991 -0.57156789 255 11 117
0.25459421 -0.49071899 -0.57553923 255 11 117
-0.43102118 -0.41764697 -0.5709942 255 11 117
-0.36854619 -0.43300113 -0.58120042 255 11 117
-0.32579303 -0.43982995 -0.58063549 255 11 117
-0.28561065 -0.43694168 -0.5594089 255 11 117
-0.23863487 -0.44545519 -0.56187147 255 11 117
0.14607407 -0.40806544 -0.58615357 255 11 117
0.18227084 -0.42186314 -0.5703668 255 11 117
0.21315366 -0.42592546 -0.57248169 255 11 117
0.25444782 -0.42764878 -0.57672542 255 11 117
0.081436709 -0.39028311 -0.59627235 255 11 117
0.14383644 -0.38685375 -0.58118373 255 11 117
0.17862324 -0.3786639 -0.57284772 255 11 117
0.22477975 -0.37649491 -0.57208705 255 11 117
0.19089353 -0.34029698 -0.5647471 255 11 117
0.22889817 -0.32971191 -0.5730623 255 11 117
-5.3779702 -12.660224 -0.52489328 255 11 117
-5.3770719 -12.624823 -0.51811969 255 11 117
-5.401896 -12.553882 -0.51577675 255 11 117
-5.3886442 -12.575344 -0.53141516 255 11 117
-5.4102054 -12.522764 -0.52869493 255 11 117
-5.3952122 -12.526254 -0.52918261 255 11 117
-5.4086895 -12.468123 -0.51727223 255 11 117
-5.3962307 -12.48465 -0.5323959 255 11 117
-5.4064822 -12.426214 -0.51812923 255 11 117
-5.3962646 -12.418857 -0.5303542 255 11 117
-5.4053226 -12.362492 -0.53075784 255 11 117
-5.3947539 -12.388001 -0.53406703 255 11 117
-5.405755 -12.321235 -0.52284241 255 11 117
-5.3972011 -12.333023 -0.51780337 255 11 117
-5.6203723 -12.252519 -0.51793277 255 11 117
-5.5743761 -12.260952 -0.52833593 255 11 117
-5.5276752 -12.272569 -0.52574837 255 11 117
-5.4679246 -12.285472 -0.52045059 255 11 117
-5.4254498 -12.292957 -0.52675986 255 11 117
-5.8677936 -12.205716 -0.51971585 255 11 117
-5.8285007 -12.208755 -0.51828039 255 11 117
-5.7755628 -12.216413 -0.526847 255 11 117
-5.7287269 -12.226041 -0.52595019 255 11 117
-5.6720691 -12.236232 -0.52649665 255 11 117
-5.6276431 -12.245372 -0.52550507 255 11 117
-6.0675726 -12.158117 -0.51589417 255 11 117
-6.0269532 -12.163324 -0.52987069 255 11 117
-5.9744191 -12.176615 -0.52671885 255 11 117
-5.9291306 -12.185184 -0.52821296 255 11 117
-5.876956 -12.195486 -0.52673739 255 11 117
-5.8493724 -12.196858 -0.52397585 255 11 117
-6.1006937 -12.111864 -0.50674051 255 11 117
-6.0757761 -12.127741 -0.52731502 255 11 117
-6.0467257 -12.141869 -0.54582959 255 11 117
-6.0741081 -12.082875 -0.53767329 255 11 117
-6.0700855 -12.025695 -0.51406556 255 11 117
-6.0494394 -12.013978 -0.54185325 255 11 117
-6.0358176 -11.97751 -0.53611243 255 11 117
-6.017293 -11.942253 -0.54794472 255 11 117
-5.986649 -11.859093 -0.51983339 255 11 117
-5.9365907 -11.759308 -0.53811723 255 11 117
-5.9093432 -11.70396 -0.51131594 255 11 117
-5.8756895 -11.628522 -0.52515948 255 11 117
-5.8518796 -11.569782 -0.50537825 255 11 117
-5.8437848 -11.561089 -0.52605677 255 11 117
-5.8287749 -11.506704 -0.53437114 255 11 117
-5.8084898 -11.470217 -0.53987229 255 11 117
-5.7993674 -11.450658 -0.52331287 255 11 117
-5.7939672 -11.433254 -0.52909654 255 11 117
-5.9290771 -11.353942 -0.50494993 255 11 117
-5.775414 -11.388658 -0.52173758 255 11 117
-5.9577794 -11.305806 -0.50401908 255 11 117
-5.9320874 -11.321686 -0.52313393 255 11 117
-5.8847623 -11.311434 -0.52579933 255 11 117
-5.7460518 -11.309423 -0.53815264 255 11 117
-6.2220216 -11.250761 -0.50978637 255 11 117
-6.1289029 -11.258057 -0.50681019 255 11 117
-6.0746651 -11.259057 -0.52293116 255 11 117
-6.0227914 -11.270536 -0.53021514 255 11 117
-5.974884 -11.285116 -0.5291239 255 11 117
-5.9465699 -11.294925 -0.542992 255 11 117
-5.8642673 -11.283317 -0.53982776 255 11 117
-5.8396163 -11.259914 -0.52905482 255 11 117
-5.7255325 -11.27749 -0.52188903 255 11 117
-6.3188171 -11.205321 -0.51479077 255 11 117
-6.2731113 -11.211243 -0.52413785 255 11 117
-6.2294707 -11.227336 -0.52210975 255 11 117
-6.1789598 -11.234568 -0.52394611 255 11 117
-6.1348743 -11.243992 -0.53723329 255 11 117
-6.0821371 -11.245323 -0.53250468 255 11 117
-5.8153825 -11.226645 -0.53492236 255 11 117
-5.790041 -11.20571 -0.52504122 255 11 117
-5.7151647 -11.222249 -0.51810646 255 11 117
-6.4647789 -11.157862 -0.525823 255 11 117
-6.4255595 -11.166816 -0.53134036 255 11 117
-6.3736606 -11.18409 -0.52567351 255 11 117
-6.332448 -11.190774 -0.53252316 255 11 117
-6.2867408 -11.198558 -0.53651756 255 11 117
-5.7675424 -11.174581 -0.52884412 255 11 117
-5.7297759 -11.171617 -0.5274561 255 11 117
-6.51966 -11.115282 -0.52428669 255 11 117
-6.4804835 -11.137719 -0.52684426 255 11 117
-6.4498839 -11.1455 -0.53629708 255 11 117
-5.7489991 -11.1493 -0.54718459 255 11 117
-6.8017478 -11.058051 -0.53084868 255 11 117
-6.772471 -11.062511 -0.53070492 255 11 117
-6.7212219 -11.073207 -0.52538913 255 11 117
-6.6706266 -11.076197 -0.5261088 255 11 117
-6.6250539 -11.072437 -0.5280236 255 11 117
-6.5734439 -11.072553 -0.52071023 255 11 117
-6.5368228 -11.086447 -0.52404177 255 11 117
0.26937765 -9.9801922 -0.51223135 255 11 117
0.23796988 -9.9080744 -0.50738341 255 11 117
0.28114015 -9.928524 -0.51145923 255 11 117
0.12867528 -9.8710051 -0.50204831 255 11 117
0.27857447 -9.8754511 -0.50891966 255 11 117
0.11016303 -9.8029099 -0.50295132 255 11 117
0.012019049 -9.769248 -0.50728083 255 11 117
0.28566262 -9.7917213 -0.53994364 255 11 117
-0.22689568 -9.7045879 -0.53297031 255 11 117
0.13321666 -9.7031364 -0.54529804 255 11 117
-0.2259327 -9.6712723 -0.52823573 255 11 117
-6.3896179e-05 -9.6776457 -0.53135788 255 11 117
0.016414853 -9.6561165 -0.52652854 255 11 117
0.13237825 -9.6753941 -0.52276933 255 11 117
0.15036882 -9.6528053 -0.50830734 255 11 117
0.24682164 -9.6809626 -0.53437948 255 11 117
0.2621935 -9.6688328 -0.53381455 255 11 117
-0.23046596 -9.627635 -0.53271443 255 11 117
-0.11614805 -9.6153421 -0.52578527 255 11 117
-0.093584657 -9.602087 -0.52652675 255 11 117
0.014765207 -9.6360636 -0.52520686 255 11 117
0.12923157 -9.6295919 -0.51422799 255 11 117
0.24309707 -9.6056395 -0.50006807 255 11 117
0.25902963 -9.6255436 -0.52633917 255 11 117
-0.11377519 -9.5843945 -0.53018296 255 11 117
-0.096021987 -9.5704966 -0.52890831 255 11 117
