ply
format ascii 1.0
comment PCL generated
element vertex 1109
property float x
property float y
property float z
property uchar red
property uchar green
property uchar blue
element camera 0
property float view_px
property float view_py
property float view_pz
property float x_axisx
property float x_axisy
property float x_axisz
property float y_axisx
property float y_axisy
property float y_axisz
property float z_axisx
property float z_axisy
property float z_axisz
property float focal
property float scalex
property float scaley
property float centerx
property float centery
property int viewportx
property int viewporty
property float k1
property float k2
end_header
-2.0634508 -8.2526331 0.13826199 21 255 75
-2.0184991 -8.2572651 0.13170584 21 255 75
-1.9761616 -8.264883 0.12296185 21 255 75
-1.9248728 -8.2772579 0.12558465 21 255 75
-1.8731052 -8.2881861 0.12385787 21 255 75
-1.8263361 -8.2951412 0.12730327 21 255 75
-1.778342 -8.2984257 0.11365784 21 255 75
-2.2548816 -8.205451 0.12535903 21 255 75
-2.2203474 -8.2089329 0.1219208 21 255 75
-2.1778028 -8.2191591 0.12548113 21 255 75
-2.1280646 -8.2341156 0.12341467 21 255 75
-2.0771365 -8.2428465 0.12568669 21 255 75
-2.0378785 -8.2482262 0.11125416 21 255 75
-2.2591345 -8.1744967 0.12549555 21 255 75
-2.2405317 -8.1913576 0.12907207 21 255 75
-2.2553055 -8.1242552 0.12390249 21 255 75
-2.2391701 -8.1139545 0.12180708 21 255 75
-2.2505507 -8.0800676 0.14704193 21 255 75
-2.2370858 -8.0722294 0.12740658 21 255 75
-2.2395124 -8.0197048 0.12802792 21 255 75
-2.2251177 -7.9658732 0.13125885 21 255 75
-2.4603152 -7.9027381 0.14372717 21 255 75
-2.4152398 -7.9072042 0.14696907 21 255 75
-2.3744557 -7.9135389 0.1422525 21 255 75
-2.3326101 -7.917542 0.14118245 21 255 75
-2.2664087 -7.9159288 0.13730097 21 255 75
-2.2352345 -7.9265847 0.1292367 21 255 75
-2.7005625 -7.8529067 0.14742748 21 255 75
-2.6736147 -7.856204 0.14384039 21 255 75
-2.6310534 -7.8625236 0.1457791 21 255 75
-2.5744636 -7.8656807 0.14221719 21 255 75
-2.5231028 -7.8730011 0.13815559 21 255 75
-2.4721003 -7.871007 0.13351643 21 255 75
-2.4242823 -7.870225 0.12556931 21 255 75
-2.377084 -7.8728886 0.11926697 21 255 75
-2.3236039 -7.8789811 0.11667494 21 255 75
-2.2763453 -7.8856721 0.11793087 21 255 75
-2.2429743 -7.8896232 0.1152641 21 255 75
-2.9146676 -7.8105965 0.14860995 21 255 75
-2.8718619 -7.8179798 0.14631435 21 255 75
-2.8095338 -7.8144145 0.14025994 21 255 75
-2.7715862 -7.817492 0.13677157 21 255 75
-2.7246773 -7.8164859 0.13015212 21 255 75
-2.6717198 -7.8182855 0.12445771 21 255 75
-2.6247129 -7.824944 0.12414687 21 255 75
-2.5768526 -7.8323894 0.12178375 21 255 75
-2.5257571 -7.8359923 0.11711735 21 255 75
-2.4824758 -7.8385463 0.11062191 21 255 75
-2.4286947 -7.8446016 0.10562848 21 255 75
-2.3759675 -7.8475237 0.10697927 21 255 75
-3.183604 -7.7562623 0.14793937 21 255 75
-3.1378083 -7.7501564 0.14336394 21 255 75
-3.0735025 -7.7565184 0.1413717 21 255 75
-3.0272386 -7.7590866 0.13853027 21 255 75
-2.9736824 -7.7664795 0.13290434 21 255 75
-2.9212654 -7.7707419 0.12908266 21 255 75
-2.8727982 -7.7783728 0.12528284 21 255 75
-2.8272374 -7.7816429 0.12121926 21 255 75
-2.7759609 -7.7830343 0.11459512 21 255 75
-2.7286863 -7.7919722 0.11233489 21 255 75
-2.6801882 -7.7960615 0.11017916 21 255 75
-2.6275108 -7.798317 0.10928747 21 255 75
-3.4065046 -7.7007885 0.14769591 21 255 75
-3.3177433 -7.7080917 0.14167419 21 255 75
-3.2763934 -7.7132335 0.14053099 21 255 75
-3.2199433 -7.7176065 0.1347893 21 255 75
-3.1778078 -7.7206259 0.13143559 21 255 75
-3.1254678 -7.7261295 0.12468406 21 255 75
-3.0716186 -7.731607 0.1192598 21 255 75
-3.02229 -7.7391024 0.1148143 21 255 75
-2.978229 -7.7393112 0.11220714 21 255 75
-2.9295783 -7.746459 0.10814235 21 255 75
-5.3080649 -7.6514368 0.13255024 21 255 75
-5.2720904 -7.6534872 0.13051435 21 255 75
-5.2217898 -7.6600013 0.1248989 21 255 75
-5.1748562 -7.6647477 0.12627621 21 255 75
-5.1211886 -7.6772108 0.12650345 21 255 75
-5.084878 -7.6832376 0.12022189 21 255 75
-3.631331 -7.6530623 0.14626679 21 255 75
-3.5740151 -7.6606364 0.1424948 21 255 75
-3.51949 -7.6666331 0.13950722 21 255 75
-3.4685547 -7.6668115 0.13032621 21 255 75
-3.4289804 -7.6686621 0.12410063 21 255 75
-3.3769782 -7.675653 0.12190465 21 255 75
-3.3204889 -7.6820254 0.11723062 21 255 75
-3.2752073 -7.6887259 0.11684887 21 255 75
-3.2271988 -7.6892929 0.11213217 21 255 75
-3.172307 -7.6942577 0.11104527 21 255 75
-3.1469448 -7.6948576 0.10525748 21 255 75
-5.456686 -7.6096926 0.13100125 21 255 75
-5.4230008 -7.6165681 0.12568504 21 255 75
-5.3748751 -7.6292582 0.12748341 21 255 75
-5.3257294 -7.6410737 0.12553674 21 255 75
-5.2754431 -7.647758 0.11719378 21 255 75
-5.2300134 -7.6475563 0.11135334 21 255 75
-5.048327 -7.641088 0.10573362 21 255 75
-3.9081795 -7.6071215 0.14562914 21 255 75
-3.8690445 -7.6090879 0.14298104 21 255 75
-3.8237083 -7.611342 0.1396904 21 255 75
-3.7704306 -7.6143827 0.12911133 21 255 75
-3.7232721 -7.616056 0.12452034 21 255 75
-3.6771727 -7.6191063 0.1193682 21 255 75
-3.6264129 -7.6286035 0.1210288 21 255 75
-3.5769985 -7.6360321 0.12156834 21 255 75
-3.5257626 -7.6395249 0.11533237 21 255 75
-3.4898572 -7.6450834 0.11366441 21 255 75
-3.4362264 -7.6496491 0.10425074 21 255 75
-5.4672556 -7.5736914 0.12165689 21 255 75
-5.0156283 -7.5700169 0.11920679 21 255 75
-4.1612344 -7.5548849 0.14697714 21 255 75
-4.1256652 -7.5593634 0.14498368 21 255 75
-4.0722342 -7.5605659 0.13808912 21 255 75
-4.0242872 -7.5649891 0.13175149 21 255 75
-3.9763544 -7.5665336 0.12368832 21 255 75
-3.9271638 -7.5753207 0.12514019 21 255 75
-3.873518 -7.5837784 0.12147949 21 255 75
-3.8282421 -7.5894103 0.1171333 21 255 75
-3.7824194 -7.5933104 0.11462261 21 255 75
-3.7366343 -7.5986681 0.13367729 21 255 75
-3.6937659 -7.5976877 0.10170823 21 255 75
-5.4616981 -7.524724 0.13079402 21 255 75
-5.4453177 -7.5030394 0.13830419 21 255 75
-4.9730697 -7.5240631 0.1283817 21 255 75
-4.9480968 -7.5054126 0.1410071 21 255 75
-4.3568254 -7.5045228 0.14003544 21 255 75
-4.3182197 -7.5056014 0.1234735 21 255 75
-4.2727504 -7.5075336 0.12308936 21 255 75
-4.2250767 -7.5173268 0.12592298 21 255 75
-4.1735044 -7.5281749 0.12338712 21 255 75
-4.1249008 -7.535399 0.11924406 21 255 75
-4.0806298 -7.5413885 0.12221525 21 255 75
-4.0289822 -7.5445876 0.11798437 21 255 75
-3.9839242 -7.5451818 0.10963316 21 255 75
-5.4557314 -7.473526 0.12343495 21 255 75
-5.4440212 -7.4640274 0.13006997 21 255 75
-4.960937 -7.4991722 0.10195471 21 255 75
-4.9353814 -7.4790969 0.12046026 21 255 75
-4.3614664 -7.4839025 0.12557627 21 255 75
-4.3300295 -7.4934421 0.12701146 21 255 75
-4.2813368 -7.4962029 0.12602465 21 255 75
-4.2339239 -7.4981651 0.11601655 21 255 75
-5.4510779 -7.4392481 0.11932601 21 255 75
-5.4431376 -7.4243464 0.12509818 21 255 75
-4.9065371 -7.4391546 0.12326834 21 255 75
-4.8908539 -7.4148841 0.12598115 21 255 75
-4.3560877 -7.4247832 0.12728712 21 255 75
-4.3407216 -7.4136209 0.12527773 21 255 75
-5.5024819 -7.3531704 0.12592606 21 255 75
-5.4749508 -7.3572197 0.13112874 21 255 75
-5.4377842 -7.3755713 0.12318455 21 255 75
-4.8643365 -7.3812284 0.11653581 21 255 75
-4.8448796 -7.3711991 0.12441786 21 255 75
-4.3295736 -7.3751907 0.12201142 21 255 75
-5.5226479 -7.3233452 0.12259632 21 255 75
-5.472548 -7.3450413 0.12399063 21 255 75
-5.4494057 -7.3469944 0.10770942 21 255 75
-4.8249993 -7.331295 0.12270508 21 255 75
-4.3186512 -7.3171377 0.13272443 21 255 75
-5.527421 -7.2776456 0.12201528 21 255 75
-4.7779999 -7.2769294 0.1223559 21 255 75
-4.4700041 -7.2575765 0.1323849 21 255 75
-4.4241743 -7.2650752 0.12733448 21 255 75
-4.3762999 -7.2769389 0.12536409 21 255 75
-4.3271699 -7.2884994 0.12247068 21 255 75
-5.5126801 -7.2215829 0.12260886 21 255 75
-4.7555447 -7.226469 0.13239877 21 255 75
-4.7351646 -7.2163024 0.10507884 21 255 75
-4.6731963 -7.2096429 0.10229059 21 255 75
-4.6163092 -7.2046347 0.11518715 21 255 75
-4.5791111 -7.2208247 0.12271018 21 255 75
-4.5232115 -7.2284193 0.12690286 21 255 75
-4.4745965 -7.2381444 0.12009631 21 255 75
-4.436758 -7.2395558 0.11094886 21 255 75
-5.504693 -7.1751552 0.12345739 21 255 75
-5.4964838 -7.1702957 0.12553102 21 255 75
-4.7065873 -7.1765561 0.12369572 21 255 75
-4.6789846 -7.1733861 0.12677497 21 255 75
-4.6282291 -7.185873 0.12537473 21 255 75
-4.5066881 -7.1772013 0.14853175 21 255 75
-5.5041571 -7.145565 0.12541918 21 255 75
-5.4934363 -7.1228213 0.12645672 21 255 75
-5.4818783 -7.0777855 0.12079968 21 255 75
-5.4744673 -7.0259366 0.12480727 21 255 75
-5.468164 -6.9728951 0.12535164 21 255 75
-5.4612827 -6.9265037 0.12451891 21 255 75
-5.4484448 -6.9297137 0.12597704 21 255 75
-5.4526401 -6.873384 0.12986119 21 255 75
-5.4446921 -6.8659959 0.12669149 21 255 75
-5.4396219 -6.8254147 0.12450212 21 255 75
-5.4284258 -6.7740378 0.12335349 21 255 75
-5.4195738 -6.7234998 0.1216779 21 255 75
-5.4150496 -6.6764917 0.12658349 21 255 75
-5.3999634 -6.6524105 0.1041645 21 255 75
-5.408812 -6.6338801 0.12546916 21 255 75
-5.3940067 -6.612628 0.124084 21 255 75
-5.400557 -6.5987201 0.13084835 21 255 75
-5.3906751 -6.5715313 0.12283463 21 255 75
-5.3797178 -6.5227165 0.12383007 21 255 75
-5.3712482 -6.4720864 0.12825495 21 255 75
-5.3612976 -6.4177504 0.1240979 21 255 75
-5.3497257 -6.4173031 0.11060967 21 255 75
-5.3566895 -6.3747339 0.12464476 21 255 75
-5.3461323 -6.3660049 0.12925957 21 255 75
-5.3516378 -6.3386116 0.12926474 21 255 75
-5.3418851 -6.3221307 0.12624812 21 255 75
-5.3320899 -6.2766161 0.12385304 21 255 75
-5.3209524 -6.222477 0.12636107 21 255 75
-5.3122616 -6.1738963 0.12153891 21 255 75
-5.2993135 -6.1566777 0.13644198 21 255 75
-5.3060822 -6.1305704 0.12273625 21 255 75
-5.2967215 -6.1162872 0.12944575 21 255 75
-5.301826 -6.094285 0.12719549 21 255 75
-5.2909555 -6.0746922 0.12517083 21 255 75
-5.2827678 -6.027564 0.12377807 21 255 75
-5.2711344 -5.9771872 0.12623686 21 255 75
-5.2622566 -5.9255948 0.12584688 21 255 75
-5.2482271 -5.9007864 0.12909347 21 255 75
-5.2564478 -5.8837032 0.12375286 21 255 75
-5.2467771 -5.8625154 0.121344 21 255 75
-5.2517061 -5.838769 0.12223226 21 255 75
-5.2418766 -5.8218422 0.1233827 21 255 75
-5.2340283 -5.773726 0.12685423 21 255 75
-5.2233143 -5.729722 0.12427958 21 255 75
-5.2110872 -5.6739492 0.13034275 21 255 75
-5.2041168 -5.6337924 0.12243797 21 255 75
-5.1965213 -5.6151228 0.12443519 21 255 75
-5.1897845 -5.5730309 0.12419058 21 255 75
-5.1806331 -5.5200114 0.12754443 21 255 75
-5.1725097 -5.47403 0.12195157 21 255 75
-5.1650677 -5.4243383 0.12579875 21 255 75
-5.1559334 -5.3788953 0.12402192 21 255 75
-5.1486831 -5.3569303 0.12879834 21 255 75
-5.1520829 -5.3414812 0.13187845 21 255 75
-5.1445451 -5.3221831 0.12716466 21 255 75
-5.1351829 -5.2769041 0.12706055 21 255 75
1.4899826 -8.9520855 0.19249997 21 255 75
1.5449575 -8.950469 0.18059643 21 255 75
1.5566198 -8.9519434 0.19067018 21 255 75
2.1434572 -8.9808502 0.1547689 21 255 75
1.2349635 -8.9026003 0.17990309 21 255 75
1.2817109 -8.9066563 0.17751631 21 255 75
1.3255223 -8.9104204 0.17852321 21 255 75
1.3790643 -8.9184875 0.17788012 21 255 75
1.4296844 -8.929101 0.17276825 21 255 75
1.4782259 -8.9401236 0.17301404 21 255 75
1.5226392 -8.9451637 0.17367005 21 255 75
1.573843 -8.9355583 0.17339051 21 255 75
2.1208529 -8.9277821 0.15845053 21 255 75
0.98875111 -8.8545666 0.18683079 21 255 75
1.0293338 -8.8583374 0.18004003 21 255 75
1.0750006 -8.8659058 0.17447434 21 255 75
1.124426 -8.8762827 0.17396422 21 255 75
1.1757139 -8.8870687 0.17104524 21 255 75
1.222834 -8.8921442 0.17150058 21 255 75
1.2763091 -8.8966818 0.16908105 21 255 75
1.3209665 -8.8957806 0.17080192 21 255 75
1.5865829 -8.8710442 0.17874032 21 255 75
2.093739 -8.8672476 0.15985891 21 255 75
2.1033289 -8.8949804 0.16645457 21 255 75
0.73116708 -8.8025818 0.19405405 21 255 75
0.7751025 -8.8066978 0.17991896 21 255 75
0.82436728 -8.8149347 0.17754258 21 255 75
0.87328726 -8.8254557 0.17267154 21 255 75
0.92757636 -8.8374872 0.17984161 21 255 75
0.97459686 -8.8437328 0.17117465 21 255 75
1.0131501 -8.8471136 0.1614617 21 255 75
1.5909091 -8.8261366 0.1751564 21 255 75
1.6058501 -8.8411741 0.16734298 21 255 75
2.0707605 -8.821763 0.1797912 21 255 75
0.52623779 -8.7555065 0.17833917 21 255 75
0.57329202 -8.7637758 0.17587274 21 255 75
0.62262827 -8.7733498 0.1694534 21 255 75
0.67229724 -8.7847891 0.17695816 21 255 75
0.71737319 -8.7939501 0.1768624 21 255 75
0.76209277 -8.7960138 0.16422427 21 255 75
1.5930998 -8.7723961 0.17076561 21 255 75
1.6057162 -8.7754431 0.17722735 21 255 75
1.7966418 -8.7521229 0.193078 21 255 75
1.8284392 -8.7526608 0.18841675 21 255 75
1.8755951 -8.760046 0.18092275 21 255 75
1.9125935 -8.7658539 0.17353727 21 255 75
1.9791883 -8.7790489 0.173225 21 255 75
2.0194504 -8.7889853 0.17805903 21 255 75
2.0568662 -8.7979107 0.16395566 21 255 75
0.23915219 -8.7018576 0.18244244 21 255 75
0.27784505 -8.7067385 0.1745234 21 255 75
0.32218093 -8.7148552 0.17949121 21 255 75
0.37755898 -8.7236042 0.17228781 21 255 75
0.42792928 -8.7341557 0.17533208 21 255 75
0.47480592 -8.7426815 0.17567664 21 255 75
0.51652849 -8.7463188 0.16863476 21 255 75
1.5975749 -8.7393951 0.17612988 21 255 75
1.6163402 -8.7235088 0.1676649 21 255 75
1.6747069 -8.7177601 0.17624368 21 255 75
1.7258558 -8.7297888 0.17628777 21 255 75
1.7626048 -8.7355165 0.16506392 21 255 75
1.8251928 -8.7469349 0.16474921 21 255 75
1.8563286 -8.7488728 0.16527328 21 255 75
-0.055345841 -8.6501856 0.1921795 21 255 75
-0.024998942 -8.6529255 0.1731998 21 255 75
0.023251338 -8.661768 0.18112302 21 255 75
0.075479575 -8.6692114 0.17477624 21 255 75
0.11859582 -8.6782703 0.1754037 21 255 75
0.1772624 -8.6863518 0.17316622 21 255 75
0.22487278 -8.6956348 0.16959354 21 255 75
0.26473194 -8.6972008 0.17045268 21 255 75
-0.30795085 -8.6031685 0.18163639 21 255 75
-0.26844853 -8.6060171 0.17633656 21 255 75
-0.22491871 -8.6112185 0.17480065 21 255 75
-0.17793557 -8.6209869 0.17070727 21 255 75
-0.12479363 -8.6301279 0.17392036 21 255 75
-0.070697531 -8.6401596 0.17349781 21 255 75
-0.032317322 -8.6465139 0.17454039 21 255 75
-0.61068231 -8.5505648 0.19049516 21 255 75
-0.5685665 -8.5523796 0.18009569 21 255 75
-0.5214411 -8.5566006 0.17784522 21 255 75
-0.47384825 -8.5630245 0.1760736 21 255 75
-0.42628607 -8.5717821 0.1739071 21 255 75
-0.37564334 -8.5828571 0.17651111 21 255 75
-0.32616585 -8.5913954 0.17117308 21 255 75
-0.28197843 -8.5958109 0.16354203 21 255 75
-0.24648908 -8.5987692 0.1591883 21 255 75
-0.85420036 -8.5028973 0.18097907 21 255 75
-0.81247652 -8.5041208 0.18491583 21 255 75
-0.76912802 -8.5083399 0.17560424 21 255 75
-0.72291517 -8.5133858 0.17284077 21 255 75
-0.67369264 -8.5252209 0.17677122 21 255 75
-0.62838966 -8.5320778 0.1731074 21 255 75
-0.57864511 -8.54181 0.17357072 21 255 75
-0.52866167 -8.5451946 0.1663115 21 255 75
-1.1157053 -8.4507732 0.16534238 21 255 75
-1.0635859 -8.4534245 0.17975409 21 255 75
-1.0221776 -8.4573488 0.17284313 21 255 75
-0.97508097 -8.4662123 0.17802444 21 255 75
-0.92632818 -8.4767513 0.1779007 21 255 75
-0.87675548 -8.4854832 0.17244147 21 255 75
-0.8295728 -8.492589 0.17476533 21 255 75
-0.78527701 -8.4975243 0.16605832 21 255 75
-1.4111412 -8.4012527 0.19511554 21 255 75
-1.370133 -8.40312 0.17914064 21 255 75
-1.3218722 -8.4068317 0.17908172 21 255 75
-1.2706034 -8.4148808 0.17432502 21 255 75
-1.2273116 -8.421567 0.17434333 21 255 75
-1.174946 -8.4321508 0.17644253 21 255 75
-1.1232682 -8.4378023 0.17498362 21 255 75
-1.0778644 -8.4438648 0.17288205 21 255 75
-1.0380867 -8.4460077 0.16703433 21 255 75
-1.6127735 -8.3527079 0.1805934 21 255 75
-1.5657009 -8.3600826 0.17683665 21 255 75
-1.5257056 -8.367466 0.1789424 21 255 75
-1.4771482 -8.3748083 0.17419688 21 255 75
-1.4236546 -8.3842268 0.17157845 21 255 75
-1.3786982 -8.3921394 0.17527939 21 255 75
-1.336605 -8.3946199 0.1663572 21 255 75
-1.8607363 -8.3035393 0.18013008 21 255 75
-1.8186884 -8.3079271 0.17739984 21 255 75
-1.7779148 -8.3164549 0.17831083 21 255 75
-1.729377 -8.3230257 0.1714893 21 255 75
-1.6759852 -8.3346624 0.17500485 21 255 75
-1.6290345 -8.3405638 0.17404167 21 255 75
-1.5863242 -8.3462505 0.16919121 21 255 75
-2.1786613 -8.2521696 0.19507813 21 255 75
-2.117461 -8.2533026 0.18772073 21 255 75
-2.0701427 -8.2555857 0.17912382 21 255 75
-2.0281286 -8.2616882 0.176897 21 255 75
-1.9761273 -8.2743149 0.17535423 21 255 75
-1.9232719 -8.2862101 0.17408997 21 255 75
-1.8825707 -8.2943439 0.17560291 21 255 75
-1.8381046 -8.296524 0.16428936 21 255 75
-2.4203146 -8.2025347 0.19531724 21 255 75
-2.3674722 -8.2052908 0.1965251 21 255 75
-2.3255522 -8.2088852 0.18859574 21 255 75
-2.2709782 -8.2176809 0.18622176 21 255 75
-2.2238915 -8.2186489 0.17443003 21 255 75
-2.1765444 -8.2304592 0.17308351 21 255 75
-2.1304107 -8.2376547 0.17181131 21 255 75
-2.0847526 -8.2455244 0.16678058 21 255 75
-2.6619997 -8.1533146 0.18990526 21 255 75
-2.6198432 -8.1549778 0.1917814 21 255 75
-2.573029 -8.162653 0.19125731 21 255 75
-2.5283947 -8.1703987 0.19071743 21 255 75
-2.4696507 -8.1761341 0.1889416 21 255 75
-2.4264212 -8.187233 0.18822187 21 255 75
-2.3797991 -8.1857986 0.18289006 21 255 75
-2.3359654 -8.1823111 0.17853187 21 255 75
-2.2734277 -8.1756172 0.16807541 21 255 75
-2.2371452 -8.1515131 0.15098082 21 255 75
-2.9644008 -8.1068153 0.19966917 21 255 75
-2.9220026 -8.1049461 0.19581573 21 255 75
-2.8772602 -8.109086 0.19382395 21 255 75
-2.8203812 -8.1176414 0.19436601 21 255 75
-2.7740619 -8.1196156 0.19026954 21 255 75
-2.7279346 -8.1334877 0.19092177 21 255 75
-2.6778328 -8.1356468 0.18854435 21 255 75
-2.6277153 -8.136344 0.18582524 21 255 75
-2.5816283 -8.137454 0.18281059 21 255 75
-2.5204048 -8.1288538 0.17799591 21 255 75
-2.3192396 -8.1498356 0.17572808 21 255 75
-2.2701743 -8.1259012 0.16407707 21 255 75
-3.1164279 -8.0614233 0.19692907 21 255 75
-3.0761323 -8.0715094 0.19576256 21 255 75
-3.0234575 -8.0758953 0.19350676 21 255 75
-2.9737313 -8.081214 0.19450939 21 255 75
-2.9294791 -8.0883245 0.19104928 21 255 75
-2.8832259 -8.077487 0.18847099 21 255 75
-2.8245866 -8.0781403 0.17917641 21 255 75
-2.7794745 -8.0651302 0.18122666 21 255 75
-2.7305272 -8.0673704 0.18153338 21 255 75
-2.5256369 -8.0893507 0.17671907 21 255 75
-2.4745827 -8.071372 0.17688672 21 255 75
-2.433785 -8.0803957 0.17445888 21 255 75
-2.3100967 -8.0728912 0.17318359 21 255 75
-2.2679372 -8.0765085 0.1670201 21 255 75
-2.2251129 -8.058403 0.15756172 21 255 75
-3.4248159 -8.0065784 0.19862168 21 255 75
-3.3642728 -8.0102577 0.19344991 21 255 75
-3.3214431 -8.0066757 0.19872667 21 255 75
-3.268486 -8.031826 0.19422175 21 255 75
-3.2307374 -8.0268602 0.19304992 21 255 75
-3.1803997 -8.0372658 0.19691044 21 255 75
-3.1261921 -8.0250893 0.19003215 21 255 75
-3.0718515 -8.0288067 0.18665749 21 255 75
-3.0310609 -8.0341578 0.19223398 21 255 75
-2.9678798 -8.0303907 0.18227693 21 255 75
-2.9195678 -8.0310373 0.18731171 21 255 75
-2.8677974 -8.04074 0.18667205 21 255 75
-2.8235466 -8.0447636 0.18160039 21 255 75
-2.6892676 -8.0149899 0.1767989 21 255 75
-2.5238338 -8.0252342 0.1785049 21 255 75
-2.4397285 -8.0074739 0.17207675 21 255 75
-2.3735478 -8.0252752 0.17118056 21 255 75
-2.2689679 -8.0286627 0.16435336 21 255 75
-2.2433267 -8.0192852 0.15737747 21 255 75
-3.5841103 -7.9513412 0.19954735 21 255 75
-3.4147544 -7.9743171 0.19076356 21 255 75
-3.361253 -7.9842949 0.19651425 21 255 75
-3.3185627 -7.9807549 0.19583417 21 255 75
-3.2767229 -7.9597101 0.19779967 21 255 75
-3.2149868 -7.9947 0.19597022 21 255 75
-3.1624229 -7.9821 0.19048993 21 255 75
-3.0803659 -7.9935651 0.18278305 21 255 75
-3.0229125 -7.9503837 0.18713959 21 255 75
-2.9536967 -7.9827809 0.17704593 21 255 75
-2.9096661 -7.9682646 0.17642318 21 255 75
-2.8761845 -7.9796295 0.18684542 21 255 75
-2.8081055 -7.9620657 0.18502751 21 255 75
-2.7775464 -7.9827833 0.17739779 21 255 75
-2.73909 -7.9828033 0.17750271 21 255 75
-2.6834061 -7.9834781 0.17793024 21 255 75
-2.5306661 -7.9796057 0.17019124 21 255 75
-2.4849026 -7.9657302 0.16674764 21 255 75
-2.4264276 -7.9689059 0.16835293 21 255 75
-2.365582 -7.9720044 0.16415492 21 255 75
-2.3141198 -7.9805384 0.16457272 21 255 75
-2.2785559 -7.9784822 0.16699696 21 255 75
-2.2447762 -7.9597726 0.15522788 21 255 75
-3.6003518 -7.9428353 0.19963728 21 255 75
-3.4445467 -7.9433007 0.19712563 21 255 75
-3.3007684 -7.9496689 0.19496329 21 255 75
-3.2256489 -7.9198847 0.18915726 21 255 75
-3.0857522 -7.9138427 0.1801223 21 255 75
-2.9058843 -7.9350405 0.17753211 21 255 75
-2.8639655 -7.9489975 0.17958272 21 255 75
-2.8065588 -7.9233532 0.17530437 21 255 75
-2.7747307 -7.9397368 0.17653117 21 255 75
-2.6701183 -7.9009247 0.17412055 21 255 75
-2.6274114 -7.9291115 0.17679642 21 255 75
-2.582756 -7.9351292 0.17017435 21 255 75
-2.5141282 -7.9103327 0.1650236 21 255 75
-2.4700644 -7.910522 0.16063553 21 255 75
-2.4250734 -7.9129648 0.16000305 21 255 75
-2.3702724 -7.9227242 0.15784688 21 255 75
-2.3266335 -7.9296484 0.15740328 21 255 75
-2.2702856 -7.9368734 0.15746033 21 255 75
-2.2369208 -7.9446335 0.15372317 21 255 75
-3.7892203 -7.8517733 0.19722085 21 255 75
-3.5647264 -7.8720717 0.19793478 21 255 75
-3.372411 -7.8669114 0.19521296 21 255 75
-3.3161733 -7.8642874 0.1876598 21 255 75
-3.2595971 -7.8810649 0.19006313 21 255 75
-3.2240951 -7.8674989 0.18282668 21 255 75
-3.1764128 -7.8942657 0.18735138 21 255 75
-3.0235834 -7.860569 0.18243857 21 255 75
-2.974545 -7.8944082 0.17641483 21 255 75
-2.9181221 -7.8817058 0.17714581 21 255 75
-2.8865907 -7.8806405 0.17643927 21 255 75
-2.82265 -7.8690457 0.17293561 21 255 75
-2.7705545 -7.8567095 0.16717096 21 255 75
-2.7259107 -7.8641267 0.16413926 21 255 75
-2.6752722 -7.8669157 0.16415596 21 255 75
-2.6252825 -7.8721395 0.15977293 21 255 75
-2.5731721 -7.878005 0.15913706 21 255 75
-2.5298181 -7.8890929 0.15841547 21 255 75
-2.4824979 -7.8946366 0.15692984 21 255 75
-2.4334652 -7.8971734 0.1550409 21 255 75
-3.9310837 -7.8361974 0.19825336 21 255 75
-3.8454676 -7.804543 0.19772093 21 255 75
-3.7029586 -7.8294935 0.19640417 21 255 75
-3.6713376 -7.8290467 0.19842151 21 255 75
-3.5232649 -7.8288603 0.1956055 21 255 75
-3.4885867 -7.8183508 0.19341931 21 255 75
-3.3667836 -7.8052878 0.19067569 21 255 75
-3.2247362 -7.8473325 0.18595926 21 255 75
-3.1803551 -7.8249154 0.1833415 21 255 75
-3.1328166 -7.8333983 0.18563999 21 255 75
-3.0817633 -7.8194118 0.18019117 21 255 75
-3.0262015 -7.8104005 0.17025398 21 255 75
-2.9757035 -7.8104677 0.16515137 21 255 75
-2.9169447 -7.8232975 0.1624431 21 255 75
-2.8746262 -7.8255997 0.16004571 21 255 75
-2.8249052 -7.8345103 0.16543719 21 255 75
-2.7708857 -7.8364248 0.16046321 21 255 75
-2.7282386 -7.8350358 0.15764862 21 255 75
-2.6842887 -7.8377075 0.1556768 21 255 75
-2.6475325 -7.8489585 0.15468632 21 255 75
-3.8885994 -7.761848 0.19937108 21 255 75
-3.7967482 -7.768374 0.19674213 21 255 75
-3.7270532 -7.7623863 0.1962015 21 255 75
-3.6371369 -7.7607517 0.192678 21 255 75
-3.5798066 -7.7588601 0.19219156 21 255 75
-3.4237189 -7.7846713 0.19157356 21 255 75
-3.3923411 -7.7671103 0.18727386 21 255 75
-3.3292413 -7.7526984 0.17958507 21 255 75
-3.2721789 -7.7572637 0.17223349 21 255 75
-3.2263787 -7.7615585 0.17050822 21 255 75
-3.1706541 -7.7696419 0.16723655 21 255 75
-3.1270521 -7.7765589 0.16636039 21 255 75
-3.0754972 -7.7768168 0.164057 21 255 75
-3.0243533 -7.7846394 0.16112986 21 255 75
-2.9802322 -7.7859926 0.16198134 21 255 75
-2.9317784 -7.7909393 0.16016853 21 255 75
-2.8848159 -7.7953553 0.15654396 21 255 75
-5.0975075 -7.7007742 0.15820631 21 255 75
-4.0097156 -7.7260385 0.19938856 21 255 75
-3.9248142 -7.7221322 0.19618841 21 255 75
-3.5736847 -7.708251 0.18149379 21 255 75
-3.5252652 -7.7069421 0.17695548 21 255 75
-3.4766667 -7.71769 0.17498851 21 255 75
-3.4197979 -7.7208772 0.17565019 21 255 75
-3.3751175 -7.7269921 0.17152414 21 255 75
-3.3296053 -7.7330651 0.16804786 21 255 75
-3.2763326 -7.7320566 0.16127142 21 255 75
-3.2153392 -7.7282715 0.15522811 21 255 75
-3.1868153 -7.7355542 0.15964921 21 255 75
-3.124989 -7.745595 0.15891519 21 255 75
-3.0662355 -7.7415428 0.15195692 21 255 75
-5.3511143 -7.6541152 0.18151765 21 255 75
-5.3141155 -7.6537414 0.17473246 21 255 75
-5.2779617 -7.6597104 0.16997738 21 255 75
-5.2203884 -7.6681161 0.17205773 21 255 75
-5.1784282 -7.6755991 0.17610821 21 255 75
-5.1246834 -7.6842837 0.1752353 21 255 75
-5.085309 -7.6906419 0.17559545 21 255 75
-4.3082237 -7.6788797 0.1964421 21 255 75
-4.2797198 -7.6569138 0.19806033 21 255 75
-4.2177763 -7.6770954 0.19729026 21 255 75
-4.130434 -7.67974 0.19895165 21 255 75
-4.0702453 -7.6533322 0.19921106 21 255 75
-4.0072327 -7.6911402 0.19973561 21 255 75
-3.9875331 -7.667151 0.19836879 21 255 75
-3.9190781 -7.6698294 0.19271494 21 255 75
-3.8748324 -7.6621485 0.19175532 21 255 75
-3.8216951 -7.6558528 0.18347426 21 255 75
-3.7685118 -7.6628447 0.18084934 21 255 75
-3.7267096 -7.6658268 0.17632498 21 255 75
-3.6742923 -7.670723 0.17401022 21 255 75
-3.6209652 -7.6778994 0.16803989 21 255 75
-3.5821104 -7.6757364 0.16308768 21 255 75
-3.5269015 -7.6898174 0.16497388 21 255 75
-3.4751701 -7.6900983 0.15768217 21 255 75
-3.4345174 -7.6939511 0.15930283 21 255 75
-3.3896081 -7.6904783 0.15687105 21 255 75
-3.3318548 -7.6906915 0.15781641 21 255 75
-5.4643111 -7.6083717 0.17561579 21 255 75
-5.4242697 -7.624671 0.17729078 21 255 75
-5.3728552 -7.6382246 0.17750527 21 255 75
-5.3361654 -7.6430449 0.16943744 21 255 75
-4.3064771 -7.6071634 0.19816165 21 255 75
-4.2587972 -7.6407714 0.19802754 21 255 75
-4.1689949 -7.6036644 0.19763875 21 255 75
-4.1096845 -7.611774 0.19091187 21 255 75
-4.0749836 -7.613513 0.18897437 21 255 75
-4.0254626 -7.6137323 0.18149002 21 255 75
-3.9704583 -7.6202483 0.17820524 21 255 75
-3.9236724 -7.6221452 0.17379487 21 255 75
-3.8752058 -7.6214986 0.16462527 21 255 75
-3.8236306 -7.6310592 0.16483127 21 255 75
-3.7729681 -7.6343656 0.15819636 21 255 75
-3.7279792 -7.6375651 0.15687644 21 255 75
-3.6787412 -7.6456351 0.15742759 21 255 75
-3.6299977 -7.6453919 0.15377253 21 255 75
-3.5948949 -7.6426926 0.15929195 21 255 75
-5.4717603 -7.5741224 0.17583372 21 255 75
-4.3659029 -7.5561395 0.19453514 21 255 75
-4.3251667 -7.5590978 0.18984038 21 255 75
-4.2720399 -7.5670509 0.18552455 21 255 75
-4.2308693 -7.5694461 0.17965542 21 255 75
-4.1741619 -7.5714641 0.17039144 21 255 75
-4.1259546 -7.5767016 0.16977376 21 255 75
-4.0764036 -7.583931 0.1672378 21 255 75
-4.0181103 -7.5853734 0.15943077 21 255 75
-3.9784 -7.5903335 0.15815245 21 255 75
-3.9352622 -7.5943627 0.15588059 21 255 75
-3.888577 -7.5930538 0.16440642 21 255 75
-5.4647751 -7.5186377 0.17428637 21 255 75
-4.9686961 -7.5256867 0.17919996 21 255 75
-4.9450836 -7.5019593 0.1743506 21 255 75
-4.567555 -7.5120587 0.19431724 21 255 75
-4.5233974 -7.5176296 0.18930806 21 255 75
-4.4708157 -7.5282564 0.18944098 21 255 75
-4.4257035 -7.5342093 0.1873308 21 255 75
-4.3774638 -7.5301895 0.17552193 21 255 75
-4.3222203 -7.5301781 0.16535397 21 255 75
-4.2782693 -7.5369616 0.16529308 21 255 75
-4.2280064 -7.5399318 0.16266188 21 255 75
-4.1832147 -7.5444946 0.15921175 21 255 75
-5.4567523 -7.4782896 0.17020227 21 255 75
-5.4433546 -7.4692001 0.17378262 21 255 75
-4.9536304 -7.4901681 0.18869849 21 255 75
-4.9228969 -7.4686084 0.17755714 21 255 75
-4.8961358 -7.454689 0.1728024 21 255 75
-4.7235508 -7.4753766 0.19514461 21 255 75
-4.6773605 -7.4813466 0.19278322 21 255 75
-4.6265221 -7.4827609 0.1921749 21 255 75
-4.5775919 -7.4852381 0.18954228 21 255 75
-4.5199327 -7.4784884 0.17790423 21 255 75
-4.4794192 -7.4838982 0.1761526 21 255 75
-4.421905 -7.4576836 0.16915418 21 255 75
-4.3699455 -7.4849024 0.15821119 21 255 75
-5.4511709 -7.4438524 0.15172216 21 255 75
-5.439353 -7.4174099 0.16928235 21 255 75
-4.9121332 -7.439126 0.15356407 21 255 75
-4.8846021 -7.4236503 0.16014841 21 255 75
-4.7874694 -7.4306889 0.19693783 21 255 75
-4.7123628 -7.4155464 0.18680321 21 255 75
-4.6730242 -7.415091 0.18340358 21 255 75
-4.6147966 -7.423903 0.18272066 21 255 75
-4.5773044 -7.4332676 0.18178582 21 255 75
-4.5255094 -7.4401879 0.17294328 21 255 75
-4.4835925 -7.4119539 0.16788629 21 255 75
-4.4299784 -7.411571 0.16920224 21 255 75
-4.3638902 -7.4316168 0.16022494 21 255 75
-5.5086255 -7.356204 0.17594007 21 255 75
-5.475255 -7.3612771 0.17798945 21 255 75
-5.4411206 -7.3789401 0.17489827 21 255 75
-4.8584738 -7.3799582 0.15953025 21 255 75
-4.8353891 -7.3631096 0.18336806 21 255 75
-4.7692785 -7.3734012 0.19655535 21 255 75
-4.7141166 -7.3545828 0.18860333 21 255 75
-4.6621842 -7.3741465 0.18166924 21 255 75
-4.6391106 -7.3734045 0.18242985 21 255 75
-4.5776515 -7.3875961 0.1773953 21 255 75
-4.5292039 -7.3602643 0.17439152 21 255 75
-4.4920626 -7.3670778 0.17106535 21 255 75
-4.4245467 -7.3719473 0.16767582 21 255 75
-4.3622265 -7.3749337 0.16093634 21 255 75
-4.3333812 -7.3532128 0.15574951 21 255 75
-5.5217595 -7.3316927 0.17981489 21 255 75
-5.4879913 -7.3486376 0.16162854 21 255 75
-5.4466996 -7.3472633 0.15059318 21 255 75
-4.7825661 -7.3093081 0.19167796 21 255 75
-4.7471566 -7.3194556 0.19332016 21 255 75
-4.6258821 -7.3182845 0.1778852 21 255 75
-4.559598 -7.3404341 0.18179612 21 255 75
-4.5307379 -7.3185863 0.17243852 21 255 75
-4.4739919 -7.3137121 0.1703293 21 255 75
-4.4257865 -7.3163414 0.16339816 21 255 75
-4.38167 -7.3145347 0.16088022 21 255 75
-4.3283739 -7.3159785 0.15614492 21 255 75
-5.5227966 -7.272233 0.16904424 21 255 75
-4.7624483 -7.2774706 0.18698315 21 255 75
-4.7373576 -7.2694468 0.19230205 21 255 75
-4.6660161 -7.2672949 0.18588769 21 255 75
-4.626451 -7.2663393 0.17677444 21 255 75
-4.5715308 -7.2624674 0.17287251 21 255 75
-4.5211344 -7.2650595 0.16751258 21 255 75
-4.4727716 -7.2696409 0.15742332 21 255 75
-4.4264083 -7.2811041 0.15533707 21 255 75
-4.375782 -7.2926741 0.15524824 21 255 75
-4.3425035 -7.2968869 0.15453991 21 255 75
-5.5117307 -7.2207832 0.17381403 21 255 75
-4.7526212 -7.2483201 0.17728108 21 255 75
-4.7213883 -7.222724 0.18533108 21 255 75
-4.6863656 -7.2328343 0.18317716 21 255 75
-4.6201897 -7.2095013 0.16836847 21 255 75
-4.5753994 -7.2267165 0.16264674 21 255 75
-4.5229197 -7.2186718 0.15746352 21 255 75
-4.4976082 -7.2288427 0.15567157 21 255 75
-5.5065579 -7.1775241 0.17554876 21 255 75
-5.4963546 -7.1659727 0.17415506 21 255 75
-4.7084422 -7.1794076 0.16214065 21 255 75
-4.675406 -7.1828198 0.16814129 21 255 75
-4.6315546 -7.190299 0.16438833 21 255 75
-4.5955029 -7.1942844 0.16988136 21 255 75
-4.5088077 -7.1906023 0.1560944 21 255 75
-5.5001512 -7.1490054 0.17427838 21 255 75
-5.4913373 -7.1181154 0.17586026 21 255 75
-5.4844279 -7.0737557 0.1746029 21 255 75
-5.4727769 -7.024004 0.17925812 21 255 75
-5.4662127 -6.9744668 0.17507727 21 255 75
-5.460278 -6.9228129 0.1726855 21 255 75
-5.4475183 -6.9175162 0.16933426 21 255 75
-5.4533606 -6.873033 0.1776337 21 255 75
-5.4447355 -6.8698506 0.17786026 21 255 75
-5.4511976 -6.8391333 0.19221674 21 255 75
-5.4403076 -6.82094 0.17557855 21 255 75
-5.4315319 -6.7767048 0.1704963 21 255 75
-5.4207416 -6.7251868 0.17540556 21 255 75
-5.4137306 -6.6760101 0.1717675 21 255 75
-5.399261 -6.6528358 0.16359694 21 255 75
-5.4069576 -6.6279368 0.17446744 21 255 75
-5.3960977 -6.6186547 0.17516857 21 255 75
-5.4005828 -6.586163 0.18516262 21 255 75
-5.3905172 -6.5750356 0.17261799 21 255 75
-5.3829675 -6.5266118 0.17650747 21 255 75
-5.371707 -6.4759035 0.17728256 21 255 75
-5.3623924 -6.4294295 0.17620225 21 255 75
-5.3546557 -6.3758407 0.17915542 21 255 75
-5.345603 -6.3632846 0.17678031 21 255 75
-5.3525386 -6.3423467 0.17772335 21 255 75
-5.3412204 -6.3243108 0.17443252 21 255 75
-5.3331766 -6.2756176 0.17512244 21 255 75
-5.3222375 -6.2233233 0.17082015 21 255 75
-5.3124628 -6.1752415 0.17419615 21 255 75
-5.3043599 -6.1269145 0.17556165 21 255 75
-5.296587 -6.1175647 0.17545377 21 255 75
-5.3010888 -6.0903859 0.17393796 21 255 75
-5.2916775 -6.0770698 0.17550464 21 255 75
-5.2820959 -6.0235953 0.17689559 21 255 75
-5.2719855 -5.977037 0.17723453 21 255 75
-5.2626653 -5.925498 0.17510103 21 255 75
-5.2545161 -5.8840213 0.17504454 21 255 75
-5.2469387 -5.8612885 0.17685796 21 255 75
-5.2518711 -5.8408113 0.16983677 21 255 75
-5.2418694 -5.8229465 0.17466466 21 255 75
-5.2334261 -5.7724228 0.17590998 21 255 75
-5.2228265 -5.7255888 0.17490321 21 255 75
-5.2125468 -5.6775417 0.17847314 21 255 75
-5.2031064 -5.6265588 0.17503825 21 255 75
-5.1958408 -5.6193933 0.17483735 21 255 75
-5.1909451 -5.5743914 0.17525791 21 255 75
-5.1802692 -5.5213952 0.17504938 21 255 75
-5.1733637 -5.4747019 0.17282045 21 255 75
-5.1639314 -5.423162 0.17749403 21 255 75
-5.1567674 -5.3821115 0.1743684 21 255 75
-5.1478815 -5.3604364 0.1744706 21 255 75
-5.1525631 -5.3431439 0.18199567 21 255 75
-5.1445141 -5.3193483 0.17428266 21 255 75
-5.1360235 -5.2789545 0.17307895 21 255 75
1.4469883 -8.9523907 0.23950106 21 255 75
1.4797899 -8.9517412 0.22517051 21 255 75
1.5282754 -8.9574366 0.22813417 21 255 75
1.5675832 -8.9543514 0.2259064 21 255 75
1.1748842 -8.9051638 0.23898125 21 255 75
1.2288229 -8.9136047 0.23986864 21 255 75
1.2762616 -8.9174347 0.23529896 21 255 75
1.3183125 -8.9186287 0.22497831 21 255 75
1.3750575 -8.9318857 0.22949617 21 255 75
1.4240043 -8.9399014 0.22821163 21 255 75
1.4654181 -8.9452305 0.2178672 21 255 75
1.5493901 -8.9479189 0.21606927 21 255 75
1.5841885 -8.9258747 0.22390851 21 255 75
0.9254204 -8.8505688 0.2445908 21 255 75
0.9774189 -8.8562756 0.22150356 21 255 75
1.0254837 -8.862752 0.22636363 21 255 75
1.0744307 -8.8705406 0.22515908 21 255 75
1.1249154 -8.8789892 0.22568409 21 255 75
1.1763648 -8.8843756 0.21699649 21 255 75
1.2288473 -8.8858242 0.21240404 21 255 75
1.2753204 -8.8920879 0.2097218 21 255 75
1.3069998 -8.8942661 0.20406252 21 255 75
1.5858265 -8.8757133 0.22465725 21 255 75
1.6062462 -8.858758 0.22449456 21 255 75
0.68621826 -8.8022146 0.22763109 21 255 75
0.72666049 -8.8033791 0.21462707 21 255 75
0.77635747 -8.8111019 0.22422256 21 255 75
0.82030392 -8.8184118 0.22378913 21 255 75
0.87340295 -8.8290262 0.22402076 21 255 75
0.92630833 -8.8381128 0.22503406 21 255 75
0.9765532 -8.8416462 0.22552285 21 255 75
1.0226493 -8.8457861 0.22355653 21 255 75
1.0705798 -8.8429108 0.22383992 21 255 75
1.5919514 -8.8369541 0.21132371 21 255 75
1.6050727 -8.8361759 0.2240579 21 255 75
2.0326252 -8.8041019 0.2325037 21 255 75
2.0555279 -8.8060493 0.2115467 21 255 75
0.48210227 -8.7560358 0.23091331 21 255 75
0.52132076 -8.7614479 0.22588922 21 255 75
0.57384306 -8.7689867 0.2280618 21 255 75
0.62106383 -8.7804337 0.22294787 21 255 75
0.66898102 -8.7881184 0.22513171 21 255 75
0.72265601 -8.7911234 0.23577051 21 255 75
0.75448602 -8.7908058 0.23844469 21 255 75
1.592962 -8.7817841 0.20683315 21 255 75
1.6106095 -8.7737322 0.22471942 21 255 75
1.7497975 -8.7503252 0.23831402 21 255 75
1.7862506 -8.754508 0.23571877 21 255 75
1.8298353 -8.7573776 0.22482257 21 255 75
1.8709527 -8.7692451 0.22912446 21 255 75
1.9191858 -8.7792978 0.22960088 21 255 75
1.9779129 -8.7888145 0.22699647 21 255 75
2.0198374 -8.7972612 0.21497095 21 255 75
0.19210875 -8.7039337 0.23426689 21 255 75
0.2315253 -8.7077379 0.22862999 21 255 75
0.27319887 -8.7132549 0.22497289 21 255 75
0.32201463 -8.7239294 0.22924644 21 255 75
0.3777048 -8.7332497 0.22176117 21 255 75
0.42900735 -8.7389822 0.22437334 21 255 75
0.46413127 -8.7479258 0.22302754 21 255 75
1.6306989 -8.723094 0.22340167 21 255 75
1.6788715 -8.7281399 0.22563568 21 255 75
1.718253 -8.737257 0.22277455 21 255 75
1.7666749 -8.7453108 0.21424045 21 255 75
-0.10708849 -8.6508064 0.232245 21 255 75
-0.069711924 -8.6543045 0.23291083 21 255 75
-0.021919133 -8.6610212 0.22666056 21 255 75
0.022923172 -8.6714058 0.22761005 21 255 75
0.07432653 -8.6785975 0.22010845 21 255 75
0.12216441 -8.6863508 0.22375926 21 255 75
0.17079657 -8.6933346 0.22074226 21 255 75
0.20580073 -8.6967793 0.21394162 21 255 75
-0.36384574 -8.6030312 0.23343654 21 255 75
-0.31933376 -8.605917 0.22682776 21 255 75
-0.27246925 -8.6130819 0.22422595 21 255 75
-0.22611262 -8.6215191 0.22823542 21 255 75
-0.17324638 -8.6303177 0.22496346 21 255 75
-0.12696929 -8.6394625 0.22562294 21 255 75
-0.081871308 -8.6459913 0.22254848 21 255 75
-0.029356547 -8.6478081 0.20376715 21 255 75
-0.6536178 -8.5508127 0.24752548 21 255 75
-0.62075096 -8.5520582 0.23190805 21 255 75
-0.57224089 -8.5545368 0.22611849 21 255 75
-0.52266014 -8.5618792 0.22511783 21 255 75
-0.47753152 -8.571125 0.22425908 21 255 75
-0.42371586 -8.5825338 0.22775994 21 255 75
-0.37547249 -8.5917711 0.22516455 21 255 75
-0.33441111 -8.5950871 0.2158422 21 255 75
-0.86549211 -8.5065489 0.23863719 21 255 75
-0.81992173 -8.507865 0.2311836 21 255 75
-0.77605629 -8.512393 0.22440031 21 255 75
-0.72260249 -8.5238953 0.22363749 21 255 75
-0.67109799 -8.5356731 0.22777671 21 255 75
-0.62695998 -8.5426722 0.22360994 21 255 75
-0.58209139 -8.5461464 0.22072786 21 255 75
-0.53852284 -8.5479937 0.21387668 21 255 75
-1.1813481 -8.4523191 0.249378 21 255 75
-1.1170499 -8.453063 0.23277394 21 255 75
-1.0745013 -8.4575062 0.22848362 21 255 75
-1.0300245 -8.4641666 0.22352323 21 255 75
-0.97422987 -8.4744968 0.22511089 21 255 75
-0.92370504 -8.4854412 0.2298218 21 255 75
-0.88042068 -8.491806 0.2227802 21 255 75
-0.83197415 -8.4976254 0.21694943 21 255 75
-1.4131649 -8.4040737 0.22808731 21 255 75
-1.3687603 -8.4062691 0.22748527 21 255 75
-1.3274634 -8.4124985 0.2224295 21 255 75
-1.2769912 -8.4232664 0.22713786 21 255 75
-1.2259444 -8.4310827 0.22394419 21 255 75
-1.1746838 -8.4396706 0.22314198 21 255 75
-1.1266259 -8.4441118 0.21846506 21 255 75
-1.0907348 -8.4463549 0.2153343 21 255 75
-1.6564103 -8.3528624 0.23827399 21 255 75
-1.6183408 -8.3555775 0.22978465 21 255 75
-1.5756519 -8.3610392 0.22323011 21 255 75
-1.5200058 -8.3760052 0.22283955 21 255 75
-1.4772661 -8.384305 0.22905175 21 255 75
-1.4289619 -8.3921318 0.21896748 21 255 75
-1.3817581 -8.3973618 0.21570954 21 255 75
-1.912299 -8.302557 0.22516759 21 255 75
-1.8756835 -8.3063345 0.22622485 21 255 75
-1.8252988 -8.3145723 0.22363073 21 255 75
-1.7794223 -8.3252993 0.21911125 21 255 75
-1.7255232 -8.3331203 0.22493401 21 255 75
-1.677039 -8.341691 0.22445986 21 255 75
-1.6318386 -8.3459311 0.21476018 21 255 75
-1.5971061 -8.3481064 0.20448646 21 255 75
-2.1214623 -8.2556849 0.23248883 21 255 75
-2.0729032 -8.2636681 0.22606941 21 255 75
-2.0243704 -8.274003 0.22629397 21 255 75
-1.9747432 -8.2841587 0.22586304 21 255 75
-1.9283392 -8.2921543 0.22051035 21 255 75
-1.8724767 -8.2971792 0.2109399 21 255 75
-1.8392051 -8.2982693 0.20008324 21 255 75
-2.4741325 -8.2025909 0.23901828 21 255 75
-2.4178698 -8.2034044 0.22302316 21 255 75
-2.376122 -8.2075567 0.2265157 21 255 75
-2.3265994 -8.2164497 0.22477457 21 255 75
-2.2738049 -8.2261486 0.22532792 21 255 75
-2.2202184 -8.2328777 0.22527593 21 255 75
-2.1806691 -8.2388649 0.22124439 21 255 75
-2.1344726 -8.2458735 0.22146016 21 255 75
-2.7531986 -8.1507072 0.24218108 21 255 75
-2.7130916 -8.1548729 0.23166905 21 255 75
-2.6701179 -8.156127 0.22989051 21 255 75
-2.6271353 -8.1610041 0.22544068 21 255 75
-2.5742593 -8.1697111 0.22692341 21 255 75
-2.5280948 -8.17906 0.22606657 21 255 75
-2.4746213 -8.188797 0.22501062 21 255 75
-2.4286873 -8.1942453 0.22234876 21 255 75
-2.3805277 -8.1987076 0.21110103 21 255 75
-3.0013628 -8.102149 0.21941531 21 255 75
-2.9608626 -8.1054363 0.2306015 21 255 75
-2.9249411 -8.1084394 0.2313984 21 255 75
-2.8776984 -8.1172037 0.22591905 21 255 75
-2.8200819 -8.1256838 0.225576 21 255 75
-2.7748051 -8.1333208 0.22439381 21 255 75
-2.7264364 -8.1419621 0.22239093 21 255 75
-2.6802626 -8.1454172 0.21946014 21 255 75
-2.6390288 -8.1492901 0.20841913 21 255 75
-3.2773461 -8.05196 0.23308451 21 255 75
-3.2241352 -8.0555391 0.23024103 21 255 75
-3.1783938 -8.0612965 0.22673094 21 255 75
-3.1264167 -8.0714245 0.22602339 21 255 75
-3.0757132 -8.0790243 0.2238636 21 255 75
-3.0255272 -8.0885363 0.22683583 21 255 75
-2.9755082 -8.0935946 0.21966442 21 255 75
-2.9307702 -8.098033 0.21632434 21 255 75
-3.5179532 -8.0040684 0.23795711 21 255 75
-3.4683056 -8.0104961 0.232885 21 255 75
-3.420995 -8.0178823 0.22239107 21 255 75
-3.3793225 -8.0249987 0.22254802 21 255 75
-3.3191442 -8.0358467 0.22346582 21 255 75
-3.272208 -8.0432758 0.22154652 21 255 75
-3.2403028 -8.0470695 0.21471097 21 255 75
-3.1752796 -8.0495024 0.2045026 21 255 75
-3.8090107 -7.9530239 0.23042019 21 255 75
-3.7763979 -7.956809 0.23297481 21 255 75
-3.7263117 -7.9618516 0.22679988 21 255 75
-3.6697083 -7.9730463 0.22925134 21 255 75
-3.6239398 -7.9811811 0.23021121 21 255 75
-3.5780566 -7.9838905 0.22587615 21 255 75
-3.5268092 -7.9956727 0.22525455 21 255 75
-3.4744275 -7.999351 0.21572042 21 255 75
-3.4113278 -7.9970937 0.20068723 21 255 75
-3.3725255 -7.9883037 0.20113297 21 255 75
-3.3246188 -7.9951997 0.20102684 21 255 75
-4.1101818 -7.9025764 0.24693175 21 255 75
-4.0707793 -7.9036942 0.2344749 21 255 75
-4.0280828 -7.9073997 0.22990996 21 255 75
-3.9708798 -7.9190969 0.22926617 21 255 75
-3.9261618 -7.9258823 0.23008136 21 255 75
-3.8760107 -7.9331579 0.22652295 21 255 75
-3.8257041 -7.9414048 0.22409575 21 255 75
-3.7904434 -7.9474282 0.21485306 21 255 75
-3.7257786 -7.9363914 0.20433502 21 255 75
-3.6756763 -7.9351311 0.20315506 21 255 75
-3.6392717 -7.9376364 0.2043303 21 255 75
-3.5662017 -7.9379301 0.2028859 21 255 75
-3.4970846 -7.9352765 0.20041606 21 255 75
-4.3620172 -7.8533502 0.23420021 21 255 75
-4.325325 -7.8565955 0.23422158 21 255 75
-4.2734375 -7.8623652 0.22797377 21 255 75
-4.2255921 -7.8718758 0.23060074 21 255 75
-4.1778364 -7.8802733 0.22924207 21 255 75
-4.126194 -7.8872914 0.22965623 21 255 75
-4.0818939 -7.8898726 0.22169013 21 255 75
-4.0297165 -7.8844872 0.21549158 21 255 75
-3.9834416 -7.8770423 0.2100651 21 255 75
-3.9319558 -7.8813133 0.20479038 21 255 75
-3.8708029 -7.8763361 0.20579833 21 255 75
-4.6172528 -7.8053203 0.24157581 21 255 75
-4.5667181 -7.8085713 0.23632933 21 255 75
-4.5275993 -7.8175812 0.23669738 21 255 75
-4.4729781 -7.8262568 0.23163985 21 255 75
-4.4236898 -7.8385715 0.23359329 21 255 75
-4.379972 -7.8423729 0.23055536 21 255 75
-4.3258395 -7.8377724 0.21696775 21 255 75
-4.2677808 -7.8292179 0.21130045 21 255 75
-4.2314105 -7.8373685 0.21177705 21 255 75
-4.1196651 -7.827939 0.20943138 21 255 75
-4.0769248 -7.8186789 0.20686305 21 255 75
-4.0369635 -7.8233604 0.20355916 21 255 75
-3.9587753 -7.8359365 0.20696312 21 255 75
-3.9144104 -7.8248205 0.20353694 21 255 75
-3.7274613 -7.8314848 0.2012769 21 255 75
-4.91717 -7.7565689 0.2406739 21 255 75
-4.8643279 -7.7559519 0.24088868 21 255 75
-4.8264465 -7.7546887 0.23742615 21 255 75
-4.7723708 -7.7646403 0.23606989 21 255 75
-4.7192254 -7.7743826 0.23191807 21 255 75
-4.6802073 -7.7804227 0.23238069 21 255 75
-4.6252174 -7.7928882 0.23276317 21 255 75
-4.5810747 -7.7839599 0.22110005 21 255 75
-4.5285392 -7.7888985 0.21715054 21 255 75
-4.4783778 -7.7756085 0.21278413 21 255 75
-4.4298649 -7.775949 0.21056151 21 255 75
-4.3808541 -7.7733731 0.21087442 21 255 75
-4.2776489 -7.7920737 0.20837522 21 255 75
-4.2385101 -7.7929378 0.20455937 21 255 75
-4.1407323 -7.7688379 0.20679794 21 255 75
-4.0319042 -7.7735653 0.20239669 21 255 75
-3.9868588 -7.7888708 0.20453267 21 255 75
-3.9303296 -7.7800469 0.20173489 21 255 75
-3.8672223 -7.7587695 0.20128357 21 255 75
-3.8373699 -7.7972374 0.20185146 21 255 75
-5.1091075 -7.7054605 0.23056498 21 255 75
-5.0921373 -7.7042542 0.23333991 21 255 75
-4.9578409 -7.7229667 0.2429671 21 255 75
-4.9219861 -7.7373376 0.2377366 21 255 75
-4.8774519 -7.7361665 0.23302071 21 255 75
-4.8288951 -7.7432213 0.22919264 21 255 75
-4.7656069 -7.7448273 0.22158796 21 255 75
-4.7288284 -7.7475801 0.22224343 21 255 75
-4.6742682 -7.7323828 0.21860451 21 255 75
-4.6335368 -7.726439 0.21530239 21 255 75
-4.5868702 -7.7228336 0.21489005 21 255 75
-4.4535151 -7.740819 0.21652178 21 255 75
-4.4220676 -7.7111435 0.21159372 21 255 75
-4.3952556 -7.704299 0.21061487 21 255 75
-4.3369703 -7.7118092 0.20943467 21 255 75
-4.2751999 -7.7224846 0.20793694 21 255 75
-4.2192793 -7.7285028 0.20591871 21 255 75
-4.1243324 -7.7158542 0.20704041 21 255 75
-4.0956545 -7.7284946 0.20221461 21 255 75
-4.0179305 -7.7214661 0.20106462 21 255 75
-5.4063296 -7.6531639 0.24841358 21 255 75
-5.3646612 -7.6555572 0.22983114 21 255 75
-5.3238144 -7.6581964 0.22582766 21 255 75
-5.2737722 -7.6683784 0.22329095 21 255 75
-5.2253561 -7.677237 0.22395208 21 255 75
-5.1738377 -7.6840181 0.22827315 21 255 75
-5.1245775 -7.6926928 0.22554976 21 255 75
-5.0881414 -7.6897097 0.21799794 21 255 75
-4.9522896 -7.663178 0.24791443 21 255 75
-4.9216013 -7.6708193 0.22713612 21 255 75
-4.8786855 -7.6793122 0.22189064 21 255 75
-4.8289099 -7.6964302 0.2224385 21 255 75
-4.7924733 -7.6692653 0.21473992 21 255 75
-4.6282911 -7.6711764 0.2113269 21 255 75
-4.5323219 -7.6796169 0.21102501 21 255 75
-4.4622445 -7.6753287 0.20859921 21 255 75
-4.4228916 -7.6580844 0.21082647 21 255 75
-4.311698 -7.6673493 0.21162415 21 255 75
-4.2172122 -7.6649561 0.20222044 21 255 75
-4.1718435 -7.667181 0.20793837 21 255 75
-4.121007 -7.6748595 0.20219056 21 255 75
-4.0703444 -7.693367 0.20234944 21 255 75
-5.4616699 -7.6154399 0.2266431 21 255 75
-5.4302831 -7.6308012 0.21575072 21 255 75
-5.378911 -7.6441112 0.22703871 21 255 75
-5.3397226 -7.6463013 0.21648499 21 255 75
-5.0137558 -7.6091781 0.24067967 21 255 75
-4.9187832 -7.6209965 0.23083457 21 255 75
-4.8840513 -7.6177292 0.22107428 21 255 75
-4.8262529 -7.6174574 0.21329027 21 255 75
-4.7846351 -7.6474347 0.21477659 21 255 75
-4.7108765 -7.6308966 0.21434052 21 255 75
-4.6631336 -7.6294527 0.2141434 21 255 75
-4.6149344 -7.6093216 0.20907286 21 255 75
-4.568965 -7.6145682 0.20620622 21 255 75
-4.5095162 -7.6185155 0.20578425 21 255 75
-4.461184 -7.612196 0.20863852 21 255 75
-4.4370327 -7.6289263 0.20527773 21 255 75
-4.3866353 -7.6331716 0.20772924 21 255 75
-4.3124695 -7.6355515 0.20698494 21 255 75
-4.2601748 -7.6240273 0.20192118 21 255 75
-4.2160954 -7.6264405 0.20255585 21 255 75
-4.1759458 -7.630898 0.20173019 21 255 75
-4.1338544 -7.6348376 0.20144789 21 255 75
-4.0706506 -7.646781 0.20182924 21 255 75
-5.4747834 -7.5763707 0.22260648 21 255 75
-5.0031128 -7.5911465 0.22881515 21 255 75
-4.9716272 -7.5633092 0.2313251 21 255 75
-4.9155068 -7.5816293 0.22846146 21 255 75
-4.8841581 -7.5761633 0.22695795 21 255 75
-4.8118615 -7.5651445 0.20980513 21 255 75
-4.768744 -7.5760689 0.21004836 21 255 75
-4.7331386 -7.5817084 0.21088266 21 255 75
-4.6968169 -7.5587616 0.20983149 21 255 75
-4.6314464 -7.561831 0.20831954 21 255 75
-4.5666442 -7.5691628 0.20568407 21 255 75
-4.5312347 -7.5612841 0.20368339 21 255 75
-4.4898138 -7.5752559 0.20547532 21 255 75
-4.4235334 -7.5639749 0.20249414 21 255 75
-4.3921995 -7.5595627 0.20155036 21 255 75
-4.3208861 -7.5716634 0.20172419 21 255 75
-4.2605481 -7.5839138 0.20178713 21 255 75
-5.4644647 -7.5269561 0.21565633 21 255 75
-5.4466901 -7.5086713 0.20248728 21 255 75
-4.9740758 -7.5371933 0.21652009 21 255 75
-4.934751 -7.5186515 0.23384488 21 255 75
-4.8809776 -7.519269 0.22280106 21 255 75
-4.809021 -7.5209394 0.20471743 21 255 75
-4.7600965 -7.5334187 0.20827974 21 255 75
-4.7424169 -7.5232921 0.20535737 21 255 75
-4.672637 -7.5262651 0.20544581 21 255 75
-4.628859 -7.5173025 0.2025492 21 255 75
-4.5831981 -7.5178151 0.20335256 21 255 75
-4.5212379 -7.5315456 0.20245865 21 255 75
-4.4844642 -7.5287886 0.20064715 21 255 75
-4.3953977 -7.5466933 0.20144054 21 255 75
-5.4553261 -7.4953384 0.21737607 21 255 75
-5.4463973 -7.4762073 0.21691388 21 255 75
-4.9201794 -7.4850116 0.2144714 21 255 75
-4.8846006 -7.4671068 0.21912722 21 255 75
-4.821085 -7.4687285 0.23128468 21 255 75
-4.7588577 -7.4921031 0.20689727 21 255 75
-4.7127295 -7.4923182 0.20398054 21 255 75
-4.685679 -7.4954138 0.20257635 21 255 75
-4.6343603 -7.4969606 0.20752688 21 255 75
-5.4367504 -7.4237795 0.22333904 21 255 75
-4.8686867 -7.4301887 0.22538415 21 255 75
-4.826448 -7.4261518 0.22180204 21 255 75
-4.7940459 -7.4147639 0.20035431 21 255 75
-5.5131507 -7.3600507 0.22818933 21 255 75
-5.473722 -7.3679571 0.22528298 21 255 75
-5.4443765 -7.382091 0.22395509 21 255 75
-4.8127265 -7.3706951 0.21421924 21 255 75
-4.790647 -7.3759303 0.22268744 21 255 75
